ncols        166
nrows        32
xllcorner    -120.053194445
yllcorner    38.9218055554
cellsize     0.000277777778
NODATA_value -32768
1906.2138671875 1906.214111328125 1905.21435546875 1904.214599609375 1905.2147216796875 1907.2149658203125 1908.2152099609375 1909.2154541015625 1909.2156982421875 1909.2159423828125 1909.2161865234375 1909.2164306640625 1908.216552734375 1910.216796875 1911.217041015625 1913.21728515625 1913.217529296875 1915.2177734375 1917.218017578125 1921.21826171875 1927.218505859375 1933.2186279296875 1937.2188720703125 1937.2191162109375 1934.2193603515625 1935.2196044921875 1934.2198486328125 1932.2200927734375 1931.2203369140625 1933.2205810546875 1935.220703125 1932.220947265625 1928.22119140625 1925.221435546875 1920.2216796875 1923.221923828125 1922.22216796875 1919.222412109375 1917.22265625 1918.2227783203125 1918.2230224609375 1917.2232666015625 1916.2235107421875 1915.2237548828125 1914.2239990234375 1914.2242431640625 1915.2244873046875 1914.2247314453125 1911.224853515625 1910.22509765625 1910.225341796875 1909.2255859375 1908.225830078125 1905.22607421875 1903.226318359375 1903.2265625 1898.226806640625 1894.2269287109375 1889.2271728515625 1889.2274169921875 1889.2276611328125 1890.2279052734375 1890.2281494140625 1892.2283935546875 1896.2286376953125 1898.228759765625 1898.22900390625 1901.229248046875 1907.2294921875 1908.229736328125 1905.22998046875 1902.230224609375 1901.23046875 1897.230712890625 1896.2308349609375 1897.2310791015625 1900.2313232421875 1900.2315673828125 1904.2318115234375 1904.2320556640625 1896.2322998046875 1891.2325439453125 1889.2327880859375 1891.23291015625 1894.233154296875 1894.2333984375 1894.233642578125 1894.23388671875 1894.234130859375 1894.234375 1892.234619140625 1877.23486328125 1877.2349853515625 1877.2352294921875 1877.2354736328125 1877.2357177734375 1877.2359619140625 1877.2362060546875 1877.2364501953125 1877.2366943359375 1877.2369384765625 1877.237060546875 1877.2373046875 1877.237548828125 1877.23779296875 1877.238037109375 1877.23828125 1877.238525390625 1877.23876953125 1878.239013671875 1878.2391357421875 1879.2393798828125 1880.2396240234375 1879.2398681640625 1877.2401123046875 1877.2403564453125 1877.2406005859375 1877.2408447265625 1880.2410888671875 1879.2412109375 1882.241455078125 1882.24169921875 1882.241943359375 1882.2421875 1881.242431640625 1881.24267578125 1883.242919921875 1882.2431640625 1882.2432861328125 1880.2435302734375 1879.2437744140625 1880.2440185546875 1880.2442626953125 1880.2445068359375 1878.2447509765625 1877.2449951171875 1876.2451171875 1877.245361328125 1879.24560546875 1879.245849609375 1878.24609375 1877.246337890625 1878.24658203125 1878.246826171875 1877.2470703125 1877.2471923828125 1877.2474365234375 1876.2476806640625 1876.2479248046875 1875.2481689453125 1878.2484130859375 1881.2486572265625 1882.2489013671875 1879.2491455078125 1877.249267578125 1877.24951171875 1880.249755859375 1884.25 1883.250244140625 1882.25048828125 1881.250732421875 1881.2509765625 1882.251220703125 1881.2513427734375 1881.2515869140625 1881.2518310546875
1905.2135009765625 1903.2137451171875 1903.2139892578125 1903.2142333984375 1904.21435546875 1906.214599609375 1907.21484375 1906.215087890625 1907.21533203125 1909.215576171875 1909.2158203125 1908.216064453125 1908.21630859375 1910.2164306640625 1912.2166748046875 1913.2169189453125 1913.2171630859375 1914.2174072265625 1918.2176513671875 1922.2178955078125 1927.2181396484375 1933.2183837890625 1937.218505859375 1936.21875 1936.218994140625 1935.21923828125 1936.219482421875 1933.2197265625 1934.219970703125 1934.22021484375 1933.220458984375 1932.220703125 1929.2208251953125 1927.2210693359375 1924.2213134765625 1924.2215576171875 1925.2218017578125 1920.2220458984375 1916.2222900390625 1918.2225341796875 1918.2227783203125 1917.222900390625 1916.22314453125 1914.223388671875 1914.2236328125 1915.223876953125 1914.22412109375 1914.224365234375 1913.224609375 1911.224853515625 1910.2249755859375 1910.2252197265625 1909.2254638671875 1906.2257080078125 1903.2259521484375 1903.2261962890625 1903.2264404296875 1899.2266845703125 1894.2269287109375 1889.22705078125 1889.227294921875 1890.2275390625 1891.227783203125 1893.22802734375 1895.228271484375 1894.228515625 1894.228759765625 1899.22900390625 1906.2291259765625 1909.2293701171875 1908.2296142578125 1906.2298583984375 1903.2301025390625 1898.2303466796875 1893.2305908203125 1894.2308349609375 1897.2310791015625 1901.231201171875 1905.2314453125 1905.231689453125 1900.23193359375 1896.232177734375 1895.232421875 1896.232666015625 1896.23291015625 1896.233154296875 1896.2332763671875 1897.2335205078125 1897.2337646484375 1896.2340087890625 1892.2342529296875 1877.2344970703125 1877.2347412109375 1877.2349853515625 1877.2352294921875 1877.2353515625 1877.235595703125 1877.23583984375 1877.236083984375 1877.236328125 1877.236572265625 1877.23681640625 1877.237060546875 1877.2373046875 1877.237548828125 1877.2376708984375 1877.2379150390625 1879.2381591796875 1878.2384033203125 1878.2386474609375 1876.2388916015625 1877.2391357421875 1878.2393798828125 1878.239501953125 1878.23974609375 1878.239990234375 1877.240234375 1876.240478515625 1877.24072265625 1880.240966796875 1884.2412109375 1883.241455078125 1881.24169921875 1880.2418212890625 1880.2420654296875 1879.2423095703125 1879.2425537109375 1881.2427978515625 1881.2430419921875 1881.2432861328125 1880.2435302734375 1880.2437744140625 1880.243896484375 1879.244140625 1877.244384765625 1874.24462890625 1874.244873046875 1877.2451171875 1880.245361328125 1882.24560546875 1880.245849609375 1878.2459716796875 1878.2462158203125 1878.2464599609375 1878.2467041015625 1878.2469482421875 1877.2471923828125 1877.2474365234375 1877.2476806640625 1879.2479248046875 1880.248046875 1882.248291015625 1882.24853515625 1881.248779296875 1879.2490234375 1878.249267578125 1880.24951171875 1881.249755859375 1883.25 1882.2501220703125 1881.2503662109375 1882.2506103515625 1883.2508544921875 1883.2510986328125 1882.2513427734375 1882.2515869140625
1904.213134765625 1903.21337890625 1902.213623046875 1902.2138671875 1904.214111328125 1905.2142333984375 1905.2144775390625 1904.2147216796875 1906.2149658203125 1909.2152099609375 1910.2154541015625 1908.2156982421875 1907.2159423828125 1908.2161865234375 1910.21630859375 1911.216552734375 1912.216796875 1913.217041015625 1918.21728515625 1922.217529296875 1926.2177734375 1932.218017578125 1936.21826171875 1941.218505859375 1940.2186279296875 1942.2188720703125 1939.2191162109375 1937.2193603515625 1934.2196044921875 1933.2198486328125 1932.2200927734375 1930.2203369140625 1930.2205810546875 1929.220703125 1929.220947265625 1930.22119140625 1929.221435546875 1923.2216796875 1922.221923828125 1921.22216796875 1923.222412109375 1921.22265625 1919.222900390625 1917.2230224609375 1916.2232666015625 1916.2235107421875 1916.2237548828125 1915.2239990234375 1915.2242431640625 1913.2244873046875 1911.2247314453125 1909.2249755859375 1908.22509765625 1906.225341796875 1905.2255859375 1904.225830078125 1903.22607421875 1901.226318359375 1896.2265625 1891.226806640625 1890.22705078125 1891.2271728515625 1891.2274169921875 1892.2276611328125 1891.2279052734375 1891.2281494140625 1892.2283935546875 1900.2286376953125 1907.2288818359375 1911.2291259765625 1911.2293701171875 1910.2294921875 1907.229736328125 1899.22998046875 1894.230224609375 1893.23046875 1895.230712890625 1899.23095703125 1902.231201171875 1903.2314453125 1899.2315673828125 1898.2318115234375 1897.2320556640625 1896.2322998046875 1896.2325439453125 1896.2327880859375 1898.2330322265625 1898.2332763671875 1898.2335205078125 1894.233642578125 1877.23388671875 1877.234130859375 1877.234375 1877.234619140625 1877.23486328125 1877.235107421875 1877.2353515625 1877.235595703125 1877.23583984375 1877.2359619140625 1877.2362060546875 1877.2364501953125 1885.2366943359375 1884.2369384765625 1885.2371826171875 1886.2374267578125 1887.2376708984375 1884.2379150390625 1880.238037109375 1876.23828125 1876.238525390625 1876.23876953125 1876.239013671875 1877.2392578125 1878.239501953125 1878.23974609375 1878.239990234375 1877.240234375 1876.2403564453125 1878.2406005859375 1881.2408447265625 1881.2410888671875 1879.2413330078125 1878.2415771484375 1878.2418212890625 1879.2420654296875 1880.2423095703125 1881.242431640625 1882.24267578125 1881.242919921875 1880.2431640625 1879.243408203125 1878.24365234375 1876.243896484375 1874.244140625 1874.244384765625 1874.2445068359375 1877.2447509765625 1882.2449951171875 1882.2452392578125 1881.2454833984375 1879.2457275390625 1878.2459716796875 1879.2462158203125 1880.2464599609375 1879.2467041015625 1877.246826171875 1876.2470703125 1877.247314453125 1880.24755859375 1881.247802734375 1881.248046875 1881.248291015625 1881.24853515625 1880.248779296875 1880.2489013671875 1880.2491455078125 1882.2493896484375 1882.2496337890625 1883.2498779296875 1882.2501220703125 1883.2503662109375 1883.2506103515625 1883.2508544921875 1881.2509765625 1880.251220703125
1904.2127685546875 1904.2130126953125 1903.2132568359375 1903.2135009765625 1904.2137451171875 1905.2139892578125 1905.214111328125 1905.21435546875 1906.214599609375 1910.21484375 1912.215087890625 1909.21533203125 1908.215576171875 1907.2158203125 1907.216064453125 1908.21630859375 1909.2164306640625 1910.2166748046875 1914.2169189453125 1919.2171630859375 1924.2174072265625 1929.2176513671875 1935.2178955078125 1939.2181396484375 1943.2183837890625 1943.218505859375 1942.21875 1939.218994140625 1937.21923828125 1934.219482421875 1933.2197265625 1932.219970703125 1931.22021484375 1931.220458984375 1935.220703125 1935.2208251953125 1932.2210693359375 1930.2213134765625 1929.2215576171875 1930.2218017578125 1926.2220458984375 1924.2222900390625 1923.2225341796875 1922.2227783203125 1920.222900390625 1918.22314453125 1916.223388671875 1917.2236328125 1916.223876953125 1914.22412109375 1912.224365234375 1910.224609375 1908.224853515625 1908.22509765625 1907.2252197265625 1906.2254638671875 1904.2257080078125 1901.2259521484375 1898.2261962890625 1894.2264404296875 1893.2266845703125 1892.2269287109375 1891.2271728515625 1891.2274169921875 1891.2275390625 1893.227783203125 1898.22802734375 1904.228271484375 1910.228515625 1912.228759765625 1913.22900390625 1911.229248046875 1908.2294921875 1902.229736328125 1897.2298583984375 1899.2301025390625 1897.2303466796875 1899.2305908203125 1901.2308349609375 1901.2310791015625 1899.2313232421875 1897.2315673828125 1897.2318115234375 1896.23193359375 1895.232177734375 1895.232421875 1895.232666015625 1895.23291015625 1895.233154296875 1877.2333984375 1877.233642578125 1877.23388671875 1877.234130859375 1877.2342529296875 1877.2344970703125 1877.2347412109375 1877.2349853515625 1877.2352294921875 1877.2354736328125 1877.2357177734375 1881.2359619140625 1884.2362060546875 1885.236328125 1886.236572265625 1888.23681640625 1891.237060546875 1891.2373046875 1889.237548828125 1883.23779296875 1878.238037109375 1878.23828125 1878.238525390625 1878.2386474609375 1877.2388916015625 1877.2391357421875 1879.2393798828125 1879.2396240234375 1879.2398681640625 1879.2401123046875 1880.2403564453125 1880.2406005859375 1879.2408447265625 1879.240966796875 1879.2412109375 1880.241455078125 1881.24169921875 1882.241943359375 1883.2421875 1882.242431640625 1880.24267578125 1878.242919921875 1878.2430419921875 1876.2432861328125 1873.2435302734375 1872.2437744140625 1874.2440185546875 1875.2442626953125 1877.2445068359375 1881.2447509765625 1882.2449951171875 1880.2452392578125 1879.245361328125 1878.24560546875 1879.245849609375 1880.24609375 1880.246337890625 1878.24658203125 1877.246826171875 1878.2470703125 1879.247314453125 1879.24755859375 1879.2476806640625 1880.2479248046875 1880.2481689453125 1881.2484130859375 1882.2486572265625 1883.2489013671875 1884.2491455078125 1884.2493896484375 1882.2496337890625 1882.249755859375 1882.25 1883.250244140625 1882.25048828125 1881.250732421875 1879.2509765625
1905.21240234375 1906.212646484375 1904.212890625 1904.213134765625 1905.21337890625 1907.213623046875 1908.2138671875 1908.2139892578125 1910.2142333984375 1913.2144775390625 1915.2147216796875 1913.2149658203125 1909.2152099609375 1907.2154541015625 1906.2156982421875 1907.2159423828125 1907.2161865234375 1908.21630859375 1911.216552734375 1917.216796875 1925.217041015625 1931.21728515625 1935.217529296875 1938.2177734375 1940.218017578125 1943.21826171875 1942.218505859375 1941.2186279296875 1941.2188720703125 1938.2191162109375 1934.2193603515625 1932.2196044921875 1932.2198486328125 1935.2200927734375 1939.2203369140625 1938.2205810546875 1935.2208251953125 1933.220947265625 1934.22119140625 1932.221435546875 1929.2216796875 1926.221923828125 1925.22216796875 1925.222412109375 1923.22265625 1919.222900390625 1917.22314453125 1917.2232666015625 1917.2235107421875 1916.2237548828125 1915.2239990234375 1913.2242431640625 1910.2244873046875 1909.2247314453125 1910.2249755859375 1908.2252197265625 1906.225341796875 1902.2255859375 1900.225830078125 1899.22607421875 1896.226318359375 1894.2265625 1891.226806640625 1891.22705078125 1895.227294921875 1898.2275390625 1900.227783203125 1906.2279052734375 1910.2281494140625 1913.2283935546875 1915.2286376953125 1914.2288818359375 1911.2291259765625 1907.2293701171875 1907.2296142578125 1908.2298583984375 1904.22998046875 1903.230224609375 1903.23046875 1901.230712890625 1898.23095703125 1896.231201171875 1895.2314453125 1896.231689453125 1895.23193359375 1894.232177734375 1893.232421875 1891.2325439453125 1890.2327880859375 1877.2330322265625 1877.2332763671875 1877.2335205078125 1877.2337646484375 1877.2340087890625 1877.2342529296875 1877.2344970703125 1877.234619140625 1877.23486328125 1877.235107421875 1877.2353515625 1884.235595703125 1886.23583984375 1886.236083984375 1886.236328125 1889.236572265625 1892.23681640625 1890.2369384765625 1887.2371826171875 1884.2374267578125 1882.2376708984375 1882.2379150390625 1884.2381591796875 1881.2384033203125 1879.2386474609375 1877.2388916015625 1878.2391357421875 1880.2392578125 1880.239501953125 1880.23974609375 1879.239990234375 1879.240234375 1878.240478515625 1880.24072265625 1882.240966796875 1882.2412109375 1882.241455078125 1882.2415771484375 1882.2418212890625 1881.2420654296875 1879.2423095703125 1877.2425537109375 1877.2427978515625 1876.2430419921875 1873.2432861328125 1873.2435302734375 1875.2437744140625 1876.243896484375 1877.244140625 1880.244384765625 1881.24462890625 1880.244873046875 1879.2451171875 1878.245361328125 1879.24560546875 1880.245849609375 1880.24609375 1879.2462158203125 1879.2464599609375 1879.2467041015625 1880.2469482421875 1879.2471923828125 1878.2474365234375 1878.2476806640625 1878.2479248046875 1879.2481689453125 1882.2484130859375 1884.24853515625 1885.248779296875 1884.2490234375 1882.249267578125 1880.24951171875 1881.249755859375 1881.25 1881.250244140625 1881.25048828125 1881.250732421875
1908.2120361328125 1911.2122802734375 1910.2125244140625 1909.2127685546875 1908.2130126953125 1911.2132568359375 1911.2135009765625 1913.2137451171875 1914.2138671875 1917.214111328125 1917.21435546875 1915.214599609375 1912.21484375 1909.215087890625 1908.21533203125 1908.215576171875 1908.2158203125 1909.216064453125 1911.2161865234375 1916.2164306640625 1925.2166748046875 1932.2169189453125 1934.2171630859375 1938.2174072265625 1941.2176513671875 1943.2178955078125 1942.2181396484375 1942.2183837890625 1944.218505859375 1940.21875 1934.218994140625 1933.21923828125 1934.219482421875 1936.2197265625 1939.219970703125 1939.22021484375 1936.220458984375 1935.220703125 1935.220947265625 1933.2210693359375 1929.2213134765625 1927.2215576171875 1926.2218017578125 1926.2220458984375 1924.2222900390625 1919.2225341796875 1918.2227783203125 1918.2230224609375 1918.2232666015625 1917.223388671875 1917.2236328125 1917.223876953125 1915.22412109375 1913.224365234375 1911.224609375 1910.224853515625 1908.22509765625 1906.225341796875 1903.2255859375 1901.2257080078125 1897.2259521484375 1894.2261962890625 1891.2264404296875 1890.2266845703125 1894.2269287109375 1897.2271728515625 1900.2274169921875 1903.2276611328125 1910.2279052734375 1915.22802734375 1917.228271484375 1916.228515625 1913.228759765625 1913.22900390625 1912.229248046875 1912.2294921875 1907.229736328125 1905.22998046875 1903.230224609375 1901.23046875 1897.2305908203125 1895.2308349609375 1897.2310791015625 1897.2313232421875 1896.2315673828125 1895.2318115234375 1891.2320556640625 1887.2322998046875 1877.2325439453125 1877.2327880859375 1877.23291015625 1877.233154296875 1877.2333984375 1877.233642578125 1877.23388671875 1877.234130859375 1877.234375 1877.234619140625 1877.23486328125 1885.235107421875 1886.2352294921875 1887.2354736328125 1889.2357177734375 1886.2359619140625 1886.2362060546875 1891.2364501953125 1888.2366943359375 1882.2369384765625 1881.2371826171875 1884.2374267578125 1886.237548828125 1884.23779296875 1884.238037109375 1880.23828125 1879.238525390625 1878.23876953125 1879.239013671875 1879.2392578125 1878.239501953125 1878.23974609375 1877.239990234375 1878.2401123046875 1879.2403564453125 1880.2406005859375 1880.2408447265625 1879.2410888671875 1879.2413330078125 1879.2415771484375 1879.2418212890625 1878.2420654296875 1877.2423095703125 1877.242431640625 1876.24267578125 1875.242919921875 1874.2431640625 1876.243408203125 1876.24365234375 1876.243896484375 1876.244140625 1878.244384765625 1879.24462890625 1879.2447509765625 1878.2449951171875 1878.2452392578125 1878.2454833984375 1878.2457275390625 1879.2459716796875 1879.2462158203125 1879.2464599609375 1880.2467041015625 1879.2469482421875 1878.2470703125 1877.247314453125 1876.24755859375 1877.247802734375 1879.248046875 1881.248291015625 1883.24853515625 1883.248779296875 1882.2490234375 1881.249267578125 1881.24951171875 1880.2496337890625 1880.2498779296875 1881.2501220703125 1882.2503662109375
1911.211669921875 1917.2119140625 1915.212158203125 1910.21240234375 1909.212646484375 1910.212890625 1914.213134765625 1916.21337890625 1917.213623046875 1917.2137451171875 1917.2139892578125 1915.2142333984375 1913.2144775390625 1911.2147216796875 1910.2149658203125 1911.2152099609375 1911.2154541015625 1913.2156982421875 1913.2159423828125 1917.216064453125 1923.21630859375 1927.216552734375 1929.216796875 1934.217041015625 1941.21728515625 1943.217529296875 1944.2177734375 1942.218017578125 1943.21826171875 1939.218505859375 1935.2186279296875 1935.2188720703125 1938.2191162109375 1939.2193603515625 1938.2196044921875 1938.2198486328125 1937.2200927734375 1939.2203369140625 1937.2205810546875 1934.2208251953125 1929.2210693359375 1929.22119140625 1928.221435546875 1926.2216796875 1922.221923828125 1920.22216796875 1919.222412109375 1919.22265625 1919.222900390625 1917.22314453125 1918.223388671875 1918.2235107421875 1919.2237548828125 1915.2239990234375 1910.2242431640625 1909.2244873046875 1909.2247314453125 1906.2249755859375 1903.2252197265625 1900.2254638671875 1898.2257080078125 1894.2259521484375 1891.22607421875 1890.226318359375 1894.2265625 1898.226806640625 1900.22705078125 1905.227294921875 1911.2275390625 1918.227783203125 1920.22802734375 1918.228271484375 1917.228515625 1916.2286376953125 1915.2288818359375 1913.2291259765625 1908.2293701171875 1904.2296142578125 1902.2298583984375 1897.2301025390625 1896.2303466796875 1896.2305908203125 1897.2308349609375 1897.23095703125 1896.231201171875 1895.2314453125 1892.231689453125 1884.23193359375 1877.232177734375 1877.232421875 1877.232666015625 1877.23291015625 1877.233154296875 1877.2333984375 1877.2335205078125 1877.2337646484375 1877.2340087890625 1877.2342529296875 1887.2344970703125 1888.2347412109375 1886.2349853515625 1886.2352294921875 1885.2354736328125 1883.2357177734375 1882.23583984375 1887.236083984375 1884.236328125 1879.236572265625 1876.23681640625 1881.237060546875 1883.2373046875 1883.237548828125 1881.23779296875 1880.238037109375 1878.23828125 1878.2384033203125 1878.2386474609375 1878.2388916015625 1877.2391357421875 1878.2393798828125 1878.2396240234375 1878.2398681640625 1878.2401123046875 1879.2403564453125 1877.2406005859375 1877.24072265625 1876.240966796875 1876.2412109375 1877.241455078125 1877.24169921875 1877.241943359375 1878.2421875 1877.242431640625 1876.24267578125 1875.242919921875 1877.2431640625 1877.2432861328125 1875.2435302734375 1874.2437744140625 1874.2440185546875 1876.2442626953125 1878.2445068359375 1878.2447509765625 1878.2449951171875 1877.2452392578125 1876.2454833984375 1877.2457275390625 1878.245849609375 1879.24609375 1879.246337890625 1878.24658203125 1877.246826171875 1877.2470703125 1877.247314453125 1877.24755859375 1877.247802734375 1880.248046875 1881.2481689453125 1883.2484130859375 1882.2486572265625 1882.2489013671875 1881.2491455078125 1880.2493896484375 1879.2496337890625 1880.2498779296875 1882.2501220703125
1911.2113037109375 1915.2115478515625 1915.2117919921875 1912.2120361328125 1911.2122802734375 1913.2125244140625 1916.2127685546875 1917.2130126953125 1917.2132568359375 1918.2135009765625 1917.213623046875 1915.2138671875 1913.214111328125 1912.21435546875 1913.214599609375 1912.21484375 1912.215087890625 1913.21533203125 1914.215576171875 1917.2158203125 1921.216064453125 1924.2161865234375 1926.2164306640625 1931.2166748046875 1939.2169189453125 1945.2171630859375 1945.2174072265625 1946.2176513671875 1944.2178955078125 1942.2181396484375 1939.2183837890625 1940.2186279296875 1943.21875 1941.218994140625 1939.21923828125 1935.219482421875 1937.2197265625 1939.219970703125 1942.22021484375 1938.220458984375 1935.220703125 1932.220947265625 1930.22119140625 1926.2213134765625 1922.2215576171875 1920.2218017578125 1919.2220458984375 1919.2222900390625 1917.2225341796875 1914.2227783203125 1913.2230224609375 1915.2232666015625 1916.2235107421875 1912.2237548828125 1908.223876953125 1908.22412109375 1908.224365234375 1905.224609375 1900.224853515625 1898.22509765625 1898.225341796875 1896.2255859375 1893.225830078125 1893.22607421875 1896.226318359375 1900.2264404296875 1904.2266845703125 1910.2269287109375 1916.2271728515625 1919.2274169921875 1922.2276611328125 1922.2279052734375 1924.2281494140625 1923.2283935546875 1920.2286376953125 1913.2288818359375 1905.22900390625 1901.229248046875 1899.2294921875 1898.229736328125 1897.22998046875 1897.230224609375 1897.23046875 1898.230712890625 1897.23095703125 1894.231201171875 1891.2314453125 1885.2315673828125 1880.2318115234375 1877.2320556640625 1877.2322998046875 1877.2325439453125 1877.2327880859375 1877.2330322265625 1877.2332763671875 1877.2335205078125 1877.2337646484375 1882.2340087890625 1883.234130859375 1885.234375 1886.234619140625 1885.23486328125 1883.235107421875 1881.2353515625 1880.235595703125 1881.23583984375 1883.236083984375 1879.236328125 1878.236572265625 1879.2366943359375 1882.2369384765625 1880.2371826171875 1880.2374267578125 1878.2376708984375 1879.2379150390625 1879.2381591796875 1878.2384033203125 1877.2386474609375 1878.2388916015625 1880.2391357421875 1880.2392578125 1878.239501953125 1879.23974609375 1880.239990234375 1880.240234375 1877.240478515625 1876.24072265625 1875.240966796875 1876.2412109375 1877.241455078125 1878.24169921875 1878.2418212890625 1879.2420654296875 1878.2423095703125 1878.2425537109375 1879.2427978515625 1879.2430419921875 1876.2432861328125 1875.2435302734375 1875.2437744140625 1876.2440185546875 1878.244140625 1878.244384765625 1878.24462890625 1878.244873046875 1878.2451171875 1878.245361328125 1879.24560546875 1878.245849609375 1877.24609375 1877.246337890625 1878.24658203125 1879.246826171875 1880.2469482421875 1879.2471923828125 1879.2474365234375 1880.2476806640625 1882.2479248046875 1883.2481689453125 1882.2484130859375 1881.2486572265625 1880.2489013671875 1879.2491455078125 1878.249267578125 1879.24951171875 1879.249755859375
1911.2109375 1915.211181640625 1915.21142578125 1915.211669921875 1916.2119140625 1917.212158203125 1919.21240234375 1918.212646484375 1920.212890625 1921.213134765625 1921.21337890625 1918.2135009765625 1915.2137451171875 1915.2139892578125 1915.2142333984375 1913.2144775390625 1911.2147216796875 1912.2149658203125 1914.2152099609375 1917.2154541015625 1920.2156982421875 1923.2159423828125 1925.216064453125 1931.21630859375 1939.216552734375 1941.216796875 1945.217041015625 1948.21728515625 1949.217529296875 1947.2177734375 1944.218017578125 1944.21826171875 1947.218505859375 1945.21875 1941.2188720703125 1938.2191162109375 1938.2193603515625 1940.2196044921875 1941.2198486328125 1940.2200927734375 1937.2203369140625 1936.2205810546875 1930.2208251953125 1924.2210693359375 1923.2213134765625 1923.221435546875 1923.2216796875 1920.221923828125 1915.22216796875 1909.222412109375 1908.22265625 1912.222900390625 1915.22314453125 1911.223388671875 1906.2236328125 1906.223876953125 1906.22412109375 1903.2242431640625 1899.2244873046875 1897.2247314453125 1895.2249755859375 1895.2252197265625 1896.2254638671875 1897.2257080078125 1898.2259521484375 1901.2261962890625 1908.2264404296875 1915.2266845703125 1919.226806640625 1922.22705078125 1924.227294921875 1925.2275390625 1928.227783203125 1929.22802734375 1924.228271484375 1915.228515625 1906.228759765625 1903.22900390625 1899.229248046875 1898.2293701171875 1899.2296142578125 1897.2298583984375 1897.2301025390625 1899.2303466796875 1898.2305908203125 1893.2308349609375 1888.2310791015625 1886.2313232421875 1883.2315673828125 1877.2318115234375 1877.23193359375 1877.232177734375 1877.232421875 1877.232666015625 1877.23291015625 1877.233154296875 1881.2333984375 1881.233642578125 1881.23388671875 1882.234130859375 1883.234375 1882.234619140625 1882.2347412109375 1880.2349853515625 1879.2352294921875 1879.2354736328125 1880.2357177734375 1881.2359619140625 1879.2362060546875 1881.2364501953125 1882.2366943359375 1881.2369384765625 1880.2371826171875 1880.2373046875 1879.237548828125 1879.23779296875 1878.238037109375 1879.23828125 1880.238525390625 1882.23876953125 1881.239013671875 1878.2392578125 1878.239501953125 1881.23974609375 1881.239990234375 1879.2401123046875 1876.2403564453125 1875.2406005859375 1875.2408447265625 1877.2410888671875 1877.2413330078125 1878.2415771484375 1878.2418212890625 1881.2420654296875 1880.2423095703125 1882.2425537109375 1881.24267578125 1878.242919921875 1876.2431640625 1876.243408203125 1878.24365234375 1879.243896484375 1880.244140625 1880.244384765625 1880.24462890625 1879.244873046875 1880.2451171875 1880.2452392578125 1878.2454833984375 1877.2457275390625 1877.2459716796875 1878.2462158203125 1879.2464599609375 1880.2467041015625 1880.2469482421875 1880.2471923828125 1882.2474365234375 1883.2476806640625 1884.2479248046875 1885.248046875 1882.248291015625 1881.24853515625 1879.248779296875 1879.2490234375 1879.249267578125 1877.24951171875
1915.210693359375 1917.2108154296875 1917.2110595703125 1919.2113037109375 1920.2115478515625 1920.2117919921875 1917.2120361328125 1917.2122802734375 1920.2125244140625 1924.2127685546875 1924.2130126953125 1922.2132568359375 1919.21337890625 1918.213623046875 1918.2138671875 1916.214111328125 1915.21435546875 1914.214599609375 1916.21484375 1917.215087890625 1919.21533203125 1919.215576171875 1923.2158203125 1929.216064453125 1936.2161865234375 1939.2164306640625 1942.2166748046875 1946.2169189453125 1948.2171630859375 1947.2174072265625 1946.2176513671875 1946.2178955078125 1949.2181396484375 1948.2183837890625 1944.2186279296875 1941.2188720703125 1940.218994140625 1940.21923828125 1940.219482421875 1938.2197265625 1936.219970703125 1931.22021484375 1928.220458984375 1925.220703125 1926.220947265625 1929.22119140625 1927.221435546875 1921.2216796875 1914.2218017578125 1907.2220458984375 1905.2222900390625 1909.2225341796875 1912.2227783203125 1911.2230224609375 1906.2232666015625 1906.2235107421875 1904.2237548828125 1902.2239990234375 1899.2242431640625 1897.224365234375 1896.224609375 1895.224853515625 1897.22509765625 1899.225341796875 1901.2255859375 1904.225830078125 1910.22607421875 1917.226318359375 1922.2265625 1925.226806640625 1927.22705078125 1927.2271728515625 1927.2274169921875 1928.2276611328125 1927.2279052734375 1920.2281494140625 1914.2283935546875 1909.2286376953125 1903.2288818359375 1898.2291259765625 1899.2293701171875 1896.2296142578125 1895.2298583984375 1897.22998046875 1897.230224609375 1893.23046875 1892.230712890625 1888.23095703125 1886.231201171875 1885.2314453125 1877.231689453125 1877.23193359375 1877.232177734375 1877.232421875 1877.232666015625 1881.2327880859375 1881.2330322265625 1883.2332763671875 1882.2335205078125 1882.2337646484375 1881.2340087890625 1881.2342529296875 1880.2344970703125 1878.2347412109375 1876.2349853515625 1874.2352294921875 1876.2353515625 1875.235595703125 1877.23583984375 1879.236083984375 1882.236328125 1882.236572265625 1881.23681640625 1881.237060546875 1880.2373046875 1877.237548828125 1877.23779296875 1878.238037109375 1882.2381591796875 1883.2384033203125 1882.2386474609375 1879.2388916015625 1878.2391357421875 1881.2393798828125 1882.2396240234375 1880.2398681640625 1877.2401123046875 1876.2403564453125 1876.2406005859375 1878.2408447265625 1878.240966796875 1876.2412109375 1877.241455078125 1877.24169921875 1880.241943359375 1881.2421875 1881.242431640625 1879.24267578125 1877.242919921875 1877.2431640625 1878.243408203125 1879.24365234375 1880.2437744140625 1881.2440185546875 1881.2442626953125 1880.2445068359375 1881.2447509765625 1881.2449951171875 1880.2452392578125 1878.2454833984375 1878.2457275390625 1877.2459716796875 1878.2462158203125 1880.246337890625 1880.24658203125 1881.246826171875 1883.2470703125 1883.247314453125 1884.24755859375 1885.247802734375 1884.248046875 1881.248291015625 1880.24853515625 1878.248779296875 1877.2490234375 1877.2491455078125
1917.2103271484375 1917.21044921875 1921.210693359375 1924.2109375 1923.211181640625 1921.21142578125 1918.211669921875 1916.2119140625 1920.212158203125 1924.21240234375 1924.212646484375 1922.212890625 1920.213134765625 1918.21337890625 1918.2135009765625 1919.2137451171875 1918.2139892578125 1918.2142333984375 1918.2144775390625 1918.2147216796875 1916.2149658203125 1915.2152099609375 1918.2154541015625 1926.2156982421875 1931.2159423828125 1936.2161865234375 1941.21630859375 1943.216552734375 1944.216796875 1943.217041015625 1943.21728515625 1945.217529296875 1947.2177734375 1948.218017578125 1945.21826171875 1943.218505859375 1942.21875 1942.218994140625 1940.2191162109375 1938.2193603515625 1934.2196044921875 1929.2198486328125 1927.2200927734375 1929.2203369140625 1933.2205810546875 1932.2208251953125 1931.2210693359375 1924.2213134765625 1917.2215576171875 1912.2218017578125 1909.221923828125 1908.22216796875 1909.222412109375 1909.22265625 1906.222900390625 1905.22314453125 1904.223388671875 1901.2236328125 1899.223876953125 1898.22412109375 1897.224365234375 1897.224609375 1897.224853515625 1899.2249755859375 1903.2252197265625 1909.2254638671875 1914.2257080078125 1919.2259521484375 1924.2261962890625 1930.2264404296875 1931.2266845703125 1929.2269287109375 1926.2271728515625 1927.2274169921875 1927.2276611328125 1924.227783203125 1918.22802734375 1914.228271484375 1906.228515625 1902.228759765625 1898.22900390625 1894.229248046875 1894.2294921875 1895.229736328125 1894.22998046875 1896.230224609375 1894.23046875 1891.2305908203125 1887.2308349609375 1885.2310791015625 1881.2313232421875 1877.2315673828125 1877.2318115234375 1877.2320556640625 1884.2322998046875 1884.2325439453125 1885.2327880859375 1885.2330322265625 1885.2332763671875 1883.2333984375 1881.233642578125 1881.23388671875 1881.234130859375 1879.234375 1876.234619140625 1875.23486328125 1873.235107421875 1874.2353515625 1874.235595703125 1880.23583984375 1883.236083984375 1883.236328125 1883.2364501953125 1883.2366943359375 1882.2369384765625 1880.2371826171875 1878.2374267578125 1880.2376708984375 1881.2379150390625 1881.2381591796875 1881.2384033203125 1880.2386474609375 1879.2388916015625 1880.2391357421875 1882.2392578125 1881.239501953125 1880.23974609375 1879.239990234375 1880.240234375 1882.240478515625 1882.24072265625 1879.240966796875 1876.2412109375 1876.241455078125 1878.24169921875 1881.241943359375 1882.2420654296875 1881.2423095703125 1879.2425537109375 1878.2427978515625 1878.2430419921875 1878.2432861328125 1879.2435302734375 1880.2437744140625 1880.2440185546875 1880.2442626953125 1881.2445068359375 1882.2447509765625 1882.244873046875 1881.2451171875 1879.245361328125 1877.24560546875 1878.245849609375 1879.24609375 1881.246337890625 1882.24658203125 1883.246826171875 1883.2470703125 1883.247314453125 1884.24755859375 1882.2476806640625 1880.2479248046875 1877.2481689453125 1875.2484130859375 1874.2486572265625 1874.2489013671875
1919.2099609375 1922.210205078125 1927.21044921875 1927.2105712890625 1925.2108154296875 1922.2110595703125 1919.2113037109375 1919.2115478515625 1920.2117919921875 1922.2120361328125 1922.2122802734375 1921.2125244140625 1921.2127685546875 1919.2130126953125 1918.2132568359375 1920.21337890625 1920.213623046875 1920.2138671875 1921.214111328125 1920.21435546875 1918.214599609375 1915.21484375 1919.215087890625 1925.21533203125 1930.215576171875 1934.2158203125 1937.216064453125 1939.21630859375 1939.2164306640625 1938.2166748046875 1940.2169189453125 1942.2171630859375 1944.2174072265625 1944.2176513671875 1944.2178955078125 1943.2181396484375 1944.2183837890625 1943.2186279296875 1942.2188720703125 1941.2191162109375 1938.21923828125 1933.219482421875 1929.2197265625 1931.219970703125 1932.22021484375 1930.220458984375 1929.220703125 1925.220947265625 1918.22119140625 1915.221435546875 1912.2216796875 1910.221923828125 1909.22216796875 1909.2222900390625 1908.2225341796875 1904.2227783203125 1902.2230224609375 1900.2232666015625 1898.2235107421875 1898.2237548828125 1900.2239990234375 1900.2242431640625 1899.2244873046875 1900.2247314453125 1904.2249755859375 1909.2252197265625 1914.225341796875 1918.2255859375 1926.225830078125 1932.22607421875 1933.226318359375 1930.2265625 1928.226806640625 1926.22705078125 1925.227294921875 1922.2275390625 1919.227783203125 1912.22802734375 1907.228271484375 1901.2283935546875 1898.2286376953125 1896.2288818359375 1895.2291259765625 1893.2293701171875 1892.2296142578125 1893.2298583984375 1893.2301025390625 1890.2303466796875 1886.2305908203125 1882.2308349609375 1880.2310791015625 1878.231201171875 1877.2314453125 1888.231689453125 1892.23193359375 1890.232177734375 1888.232421875 1888.232666015625 1885.23291015625 1884.233154296875 1882.2333984375 1882.233642578125 1881.23388671875 1879.234130859375 1880.2342529296875 1879.2344970703125 1878.2347412109375 1877.2349853515625 1880.2352294921875 1885.2354736328125 1888.2357177734375 1888.2359619140625 1887.2362060546875 1886.2364501953125 1884.2366943359375 1884.2369384765625 1884.2371826171875 1883.2373046875 1881.237548828125 1879.23779296875 1878.238037109375 1879.23828125 1879.238525390625 1880.23876953125 1882.239013671875 1884.2392578125 1884.239501953125 1883.23974609375 1887.239990234375 1887.240234375 1891.2403564453125 1886.2406005859375 1883.2408447265625 1879.2410888671875 1881.2413330078125 1882.2415771484375 1883.2418212890625 1882.2420654296875 1881.2423095703125 1881.2425537109375 1881.2427978515625 1879.2430419921875 1879.2431640625 1879.243408203125 1878.24365234375 1879.243896484375 1880.244140625 1882.244384765625 1883.24462890625 1883.244873046875 1881.2451171875 1881.245361328125 1880.24560546875 1881.245849609375 1880.24609375 1880.2462158203125 1880.2464599609375 1880.2467041015625 1881.2469482421875 1882.2471923828125 1880.2474365234375 1877.2476806640625 1876.2479248046875 1874.2481689453125 1873.2484130859375 1874.2486572265625
1920.2095947265625 1924.2098388671875 1928.2100830078125 1927.210205078125 1925.21044921875 1923.210693359375 1921.2109375 1921.211181640625 1921.21142578125 1920.211669921875 1920.2119140625 1920.212158203125 1921.21240234375 1920.212646484375 1919.212890625 1918.213134765625 1920.21337890625 1921.2135009765625 1923.2137451171875 1923.2139892578125 1920.2142333984375 1921.2144775390625 1923.2147216796875 1928.2149658203125 1930.2152099609375 1933.2154541015625 1935.2156982421875 1935.2159423828125 1935.2161865234375 1935.2164306640625 1938.216552734375 1940.216796875 1942.217041015625 1942.21728515625 1943.217529296875 1943.2177734375 1943.218017578125 1944.21826171875 1942.218505859375 1940.21875 1938.218994140625 1934.21923828125 1931.219482421875 1931.2196044921875 1927.2198486328125 1926.2200927734375 1925.2203369140625 1921.2205810546875 1914.2208251953125 1912.2210693359375 1912.2213134765625 1909.2215576171875 1908.2218017578125 1908.2220458984375 1906.2222900390625 1903.2225341796875 1898.22265625 1897.222900390625 1897.22314453125 1898.223388671875 1899.2236328125 1902.223876953125 1902.22412109375 1902.224365234375 1903.224609375 1908.224853515625 1913.22509765625 1920.225341796875 1928.2255859375 1932.225830078125 1932.2259521484375 1931.2261962890625 1930.2264404296875 1927.2266845703125 1922.2269287109375 1920.2271728515625 1918.2274169921875 1911.2276611328125 1904.2279052734375 1900.2281494140625 1898.2283935546875 1898.2286376953125 1897.2288818359375 1894.22900390625 1889.229248046875 1889.2294921875 1887.229736328125 1884.22998046875 1882.230224609375 1881.23046875 1881.230712890625 1882.23095703125 1885.231201171875 1889.2314453125 1891.231689453125 1890.23193359375 1889.2320556640625 1888.2322998046875 1886.2325439453125 1884.2327880859375 1884.2330322265625 1883.2332763671875 1882.2335205078125 1881.2337646484375 1882.2340087890625 1882.2342529296875 1882.2344970703125 1882.2347412109375 1883.2349853515625 1886.235107421875 1888.2353515625 1889.235595703125 1887.23583984375 1886.236083984375 1886.236328125 1887.236572265625 1888.23681640625 1887.237060546875 1885.2373046875 1881.237548828125 1880.23779296875 1879.238037109375 1879.23828125 1880.2384033203125 1883.2386474609375 1886.2388916015625 1887.2391357421875 1886.2393798828125 1885.2396240234375 1889.2398681640625 1892.2401123046875 1894.2403564453125 1888.2406005859375 1885.2408447265625 1883.2410888671875 1884.2413330078125 1882.241455078125 1882.24169921875 1882.241943359375 1885.2421875 1885.242431640625 1883.24267578125 1880.242919921875 1878.2431640625 1877.243408203125 1878.24365234375 1880.243896484375 1880.244140625 1881.244384765625 1881.2445068359375 1881.2447509765625 1880.2449951171875 1883.2452392578125 1881.2454833984375 1879.2457275390625 1878.2459716796875 1877.2462158203125 1877.2464599609375 1879.2467041015625 1881.2469482421875 1880.2471923828125 1878.2474365234375 1877.24755859375 1876.247802734375 1876.248046875 1876.248291015625
1919.209228515625 1923.20947265625 1924.209716796875 1924.2099609375 1923.210205078125 1923.2103271484375 1923.2105712890625 1923.2108154296875 1921.2110595703125 1921.2113037109375 1920.2115478515625 1922.2117919921875 1922.2120361328125 1918.2122802734375 1914.2125244140625 1915.2127685546875 1917.2130126953125 1922.2132568359375 1925.21337890625 1921.213623046875 1919.2138671875 1921.214111328125 1927.21435546875 1928.214599609375 1930.21484375 1930.215087890625 1931.21533203125 1932.215576171875 1932.2158203125 1932.216064453125 1935.21630859375 1938.216552734375 1940.2166748046875 1940.2169189453125 1941.2171630859375 1941.2174072265625 1941.2176513671875 1941.2178955078125 1940.2181396484375 1937.2183837890625 1936.2186279296875 1932.2188720703125 1926.2191162109375 1922.2193603515625 1920.2196044921875 1919.2198486328125 1921.219970703125 1918.22021484375 1915.220458984375 1911.220703125 1910.220947265625 1907.22119140625 1906.221435546875 1904.2216796875 1903.221923828125 1900.22216796875 1898.222412109375 1897.22265625 1899.222900390625 1899.22314453125 1899.2232666015625 1899.2235107421875 1902.2237548828125 1902.2239990234375 1904.2242431640625 1909.2244873046875 1916.2247314453125 1922.2249755859375 1928.2252197265625 1930.2254638671875 1931.2257080078125 1930.2259521484375 1928.2261962890625 1923.226318359375 1918.2265625 1918.226806640625 1917.22705078125 1911.227294921875 1902.2275390625 1899.227783203125 1900.22802734375 1900.228271484375 1901.228515625 1897.228759765625 1891.22900390625 1884.229248046875 1880.2294921875 1881.2296142578125 1881.2298583984375 1882.2301025390625 1883.2303466796875 1884.2305908203125 1886.2308349609375 1888.2310791015625 1889.2313232421875 1889.2315673828125 1888.2318115234375 1888.2320556640625 1889.2322998046875 1891.2325439453125 1892.2327880859375 1891.23291015625 1887.233154296875 1885.2333984375 1884.233642578125 1883.23388671875 1883.234130859375 1883.234375 1883.234619140625 1885.23486328125 1887.235107421875 1888.2353515625 1887.235595703125 1886.23583984375 1888.236083984375 1890.2362060546875 1890.2364501953125 1890.2366943359375 1887.2369384765625 1885.2371826171875 1882.2374267578125 1882.2376708984375 1881.2379150390625 1881.2381591796875 1883.2384033203125 1887.2386474609375 1888.2388916015625 1887.2391357421875 1885.2393798828125 1885.239501953125 1888.23974609375 1889.239990234375 1892.240234375 1891.240478515625 1891.24072265625 1887.240966796875 1885.2412109375 1882.241455078125 1883.24169921875 1887.241943359375 1889.2421875 1887.242431640625 1884.24267578125 1879.2427978515625 1878.2430419921875 1878.2432861328125 1879.2435302734375 1879.2437744140625 1879.2440185546875 1879.2442626953125 1878.2445068359375 1878.2447509765625 1879.2449951171875 1881.2452392578125 1881.2454833984375 1881.2457275390625 1880.245849609375 1879.24609375 1879.246337890625 1881.24658203125 1880.246826171875 1878.2470703125 1877.247314453125 1877.24755859375 1878.247802734375 1877.248046875
1921.2088623046875 1923.2091064453125 1922.2093505859375 1922.2095947265625 1922.2098388671875 1923.2100830078125 1925.210205078125 1925.21044921875 1924.210693359375 1923.2109375 1924.211181640625 1925.21142578125 1922.211669921875 1918.2119140625 1915.212158203125 1915.21240234375 1918.212646484375 1922.212890625 1923.213134765625 1919.21337890625 1916.2135009765625 1918.2137451171875 1923.2139892578125 1926.2142333984375 1928.2144775390625 1927.2147216796875 1926.2149658203125 1927.2152099609375 1928.2154541015625 1928.2156982421875 1931.2159423828125 1935.2161865234375 1936.2164306640625 1936.2166748046875 1937.2169189453125 1938.217041015625 1938.21728515625 1936.217529296875 1934.2177734375 1934.218017578125 1933.21826171875 1927.218505859375 1919.21875 1915.218994140625 1913.21923828125 1915.219482421875 1916.2197265625 1917.219970703125 1916.22021484375 1914.2203369140625 1909.2205810546875 1908.2208251953125 1906.2210693359375 1905.2213134765625 1904.2215576171875 1903.2218017578125 1902.2220458984375 1901.2222900390625 1902.2225341796875 1902.2227783203125 1900.2230224609375 1899.2232666015625 1899.2235107421875 1901.2236328125 1903.223876953125 1910.22412109375 1917.224365234375 1924.224609375 1928.224853515625 1930.22509765625 1930.225341796875 1929.2255859375 1925.225830078125 1917.22607421875 1915.226318359375 1915.2265625 1914.226806640625 1908.22705078125 1902.2271728515625 1900.2274169921875 1900.2276611328125 1901.2279052734375 1903.2281494140625 1904.2283935546875 1898.2286376953125 1888.2288818359375 1883.2291259765625 1882.2293701171875 1883.2296142578125 1883.2298583984375 1882.2301025390625 1883.2303466796875 1886.23046875 1888.230712890625 1888.23095703125 1889.231201171875 1889.2314453125 1890.231689453125 1892.23193359375 1894.232177734375 1895.232421875 1894.232666015625 1892.23291015625 1887.233154296875 1883.2333984375 1881.233642578125 1881.23388671875 1882.2340087890625 1883.2342529296875 1885.2344970703125 1887.2347412109375 1888.2349853515625 1887.2352294921875 1888.2354736328125 1890.2357177734375 1893.2359619140625 1893.2362060546875 1891.2364501953125 1889.2366943359375 1885.2369384765625 1883.2371826171875 1883.2373046875 1883.237548828125 1884.23779296875 1885.238037109375 1887.23828125 1889.238525390625 1889.23876953125 1888.239013671875 1887.2392578125 1887.239501953125 1889.23974609375 1894.239990234375 1896.240234375 1895.240478515625 1893.24072265625 1891.2408447265625 1888.2410888671875 1886.2413330078125 1890.2415771484375 1891.2418212890625 1891.2420654296875 1888.2423095703125 1887.2425537109375 1884.2427978515625 1883.2430419921875 1882.2432861328125 1881.2435302734375 1880.2437744140625 1879.2440185546875 1878.244140625 1877.244384765625 1878.24462890625 1882.244873046875 1885.2451171875 1885.245361328125 1885.24560546875 1882.245849609375 1881.24609375 1882.246337890625 1883.24658203125 1880.246826171875 1878.2470703125 1879.247314453125 1879.24755859375 1879.2476806640625
1925.20849609375 1925.208740234375 1924.208984375 1923.209228515625 1924.20947265625 1925.209716796875 1927.2099609375 1928.2100830078125 1929.2103271484375 1928.2105712890625 1925.2108154296875 1923.2110595703125 1920.2113037109375 1918.2115478515625 1920.2117919921875 1921.2120361328125 1921.2122802734375 1921.2125244140625 1921.2127685546875 1919.2130126953125 1917.2132568359375 1917.2135009765625 1920.213623046875 1922.2138671875 1923.214111328125 1923.21435546875 1921.214599609375 1923.21484375 1925.215087890625 1926.21533203125 1929.215576171875 1933.2158203125 1933.216064453125 1934.21630859375 1936.216552734375 1936.216796875 1934.217041015625 1932.21728515625 1930.2174072265625 1930.2176513671875 1926.2178955078125 1921.2181396484375 1915.2183837890625 1912.2186279296875 1911.2188720703125 1912.2191162109375 1912.2193603515625 1914.2196044921875 1915.2198486328125 1913.2200927734375 1910.2203369140625 1908.2205810546875 1908.220703125 1906.220947265625 1905.22119140625 1906.221435546875 1907.2216796875 1905.221923828125 1906.22216796875 1905.222412109375 1904.22265625 1902.222900390625 1899.22314453125 1898.223388671875 1902.2236328125 1909.223876953125 1916.22412109375 1923.224365234375 1928.2244873046875 1931.2247314453125 1931.2249755859375 1931.2252197265625 1925.2254638671875 1920.2257080078125 1914.2259521484375 1914.2261962890625 1911.2264404296875 1905.2266845703125 1902.2269287109375 1902.2271728515625 1902.2274169921875 1902.2276611328125 1903.2279052734375 1907.22802734375 1905.228271484375 1893.228515625 1887.228759765625 1886.22900390625 1885.229248046875 1884.2294921875 1884.229736328125 1885.22998046875 1887.230224609375 1888.23046875 1890.230712890625 1891.23095703125 1891.231201171875 1892.2314453125 1892.2315673828125 1893.2318115234375 1893.2320556640625 1893.2322998046875 1892.2325439453125 1887.2327880859375 1882.2330322265625 1879.2332763671875 1880.2335205078125 1882.2337646484375 1885.2340087890625 1886.2342529296875 1887.2344970703125 1889.2347412109375 1890.2349853515625 1891.235107421875 1893.2353515625 1894.235595703125 1895.23583984375 1892.236083984375 1888.236328125 1884.236572265625 1882.23681640625 1882.237060546875 1883.2373046875 1884.237548828125 1887.23779296875 1889.238037109375 1889.23828125 1890.238525390625 1889.2386474609375 1889.2388916015625 1889.2391357421875 1893.2393798828125 1896.2396240234375 1897.2398681640625 1897.2401123046875 1894.2403564453125 1892.2406005859375 1891.2408447265625 1889.2410888671875 1889.2413330078125 1891.2415771484375 1890.2418212890625 1890.2420654296875 1891.2421875 1891.242431640625 1890.24267578125 1888.242919921875 1887.2431640625 1882.243408203125 1881.24365234375 1880.243896484375 1879.244140625 1879.244384765625 1884.24462890625 1886.244873046875 1888.2451171875 1888.245361328125 1887.24560546875 1888.2457275390625 1889.2459716796875 1887.2462158203125 1884.2464599609375 1883.2467041015625 1882.2469482421875 1882.2471923828125 1881.2474365234375
1927.2081298828125 1928.2083740234375 1927.2086181640625 1927.2088623046875 1927.2091064453125 1927.2093505859375 1928.2095947265625 1930.2098388671875 1931.2100830078125 1928.210205078125 1924.21044921875 1921.210693359375 1918.2109375 1919.211181640625 1923.21142578125 1925.211669921875 1923.2119140625 1921.212158203125 1922.21240234375 1922.212646484375 1922.212890625 1921.213134765625 1920.21337890625 1920.213623046875 1921.2138671875 1919.2139892578125 1920.2142333984375 1921.2144775390625 1922.2147216796875 1924.2149658203125 1930.2152099609375 1934.2154541015625 1934.2156982421875 1935.2159423828125 1935.2161865234375 1935.2164306640625 1933.2166748046875 1931.2169189453125 1930.2171630859375 1928.2174072265625 1923.217529296875 1916.2177734375 1913.218017578125 1911.21826171875 1910.218505859375 1911.21875 1911.218994140625 1912.21923828125 1912.219482421875 1910.2197265625 1908.219970703125 1908.22021484375 1908.220458984375 1907.220703125 1905.220947265625 1906.22119140625 1907.2213134765625 1908.2215576171875 1907.2218017578125 1906.2220458984375 1905.2222900390625 1903.2225341796875 1902.2227783203125 1900.2230224609375 1905.2232666015625 1911.2235107421875 1917.2237548828125 1921.2239990234375 1926.2242431640625 1930.2244873046875 1932.2247314453125 1929.2249755859375 1927.22509765625 1920.225341796875 1917.2255859375 1915.225830078125 1910.22607421875 1905.226318359375 1903.2265625 1903.226806640625 1904.22705078125 1904.227294921875 1903.2275390625 1905.227783203125 1903.22802734375 1896.228271484375 1889.228515625 1888.228759765625 1886.2288818359375 1885.2291259765625 1886.2293701171875 1888.2296142578125 1889.2298583984375 1890.2301025390625 1891.2303466796875 1894.2305908203125 1894.2308349609375 1894.2310791015625 1894.2313232421875 1894.2315673828125 1893.2318115234375 1893.2320556640625 1893.2322998046875 1889.2325439453125 1881.232666015625 1877.23291015625 1880.233154296875 1883.2333984375 1886.233642578125 1885.23388671875 1885.234130859375 1889.234375 1893.234619140625 1895.23486328125 1894.235107421875 1894.2353515625 1892.235595703125 1890.23583984375 1886.236083984375 1883.236328125 1881.2364501953125 1881.2366943359375 1882.2369384765625 1883.2371826171875 1886.2374267578125 1889.2376708984375 1889.2379150390625 1889.2381591796875 1889.2384033203125 1889.2386474609375 1892.2388916015625 1894.2391357421875 1895.2393798828125 1896.2396240234375 1896.2398681640625 1895.239990234375 1893.240234375 1891.240478515625 1890.24072265625 1889.240966796875 1889.2412109375 1889.241455078125 1889.24169921875 1892.241943359375 1893.2421875 1893.242431640625 1892.24267578125 1889.242919921875 1883.2431640625 1881.243408203125 1882.24365234375 1881.2437744140625 1881.2440185546875 1885.2442626953125 1887.2445068359375 1891.2447509765625 1891.2449951171875 1892.2452392578125 1891.2454833984375 1891.2457275390625 1888.2459716796875 1886.2462158203125 1886.2464599609375 1886.2467041015625 1884.2469482421875 1881.2471923828125
1926.207763671875 1929.2080078125 1931.208251953125 1931.20849609375 1931.208740234375 1929.208984375 1929.209228515625 1929.20947265625 1929.209716796875 1926.2099609375 1922.210205078125 1921.2103271484375 1920.2105712890625 1921.2108154296875 1924.2110595703125 1925.2113037109375 1925.2115478515625 1924.2117919921875 1924.2120361328125 1926.2122802734375 1926.2125244140625 1923.2127685546875 1920.2130126953125 1921.2132568359375 1921.2135009765625 1921.2137451171875 1921.2139892578125 1922.214111328125 1923.21435546875 1926.214599609375 1931.21484375 1933.215087890625 1933.21533203125 1933.215576171875 1934.2158203125 1933.216064453125 1931.21630859375 1930.216552734375 1929.216796875 1927.217041015625 1922.21728515625 1916.217529296875 1915.2177734375 1913.218017578125 1910.2181396484375 1910.2183837890625 1911.2186279296875 1912.2188720703125 1912.2191162109375 1910.2193603515625 1907.2196044921875 1906.2198486328125 1907.2200927734375 1906.2203369140625 1906.2205810546875 1905.2208251953125 1907.2210693359375 1909.2213134765625 1908.2215576171875 1906.2218017578125 1903.221923828125 1902.22216796875 1900.222412109375 1902.22265625 1905.222900390625 1911.22314453125 1915.223388671875 1917.2236328125 1922.223876953125 1925.22412109375 1928.224365234375 1924.224609375 1920.224853515625 1919.22509765625 1917.225341796875 1913.2255859375 1909.225830078125 1906.2259521484375 1904.2261962890625 1903.2264404296875 1903.2266845703125 1903.2269287109375 1902.2271728515625 1902.2274169921875 1900.2276611328125 1895.2279052734375 1891.2281494140625 1890.2283935546875 1889.2286376953125 1887.2288818359375 1887.2291259765625 1888.2293701171875 1889.2296142578125 1889.229736328125 1891.22998046875 1893.230224609375 1894.23046875 1896.230712890625 1896.23095703125 1895.231201171875 1893.2314453125 1894.231689453125 1894.23193359375 1890.232177734375 1883.232421875 1878.232666015625 1881.23291015625 1886.233154296875 1886.2333984375 1883.233642578125 1882.2337646484375 1886.2340087890625 1892.2342529296875 1895.2344970703125 1894.2347412109375 1892.2349853515625 1890.2352294921875 1889.2354736328125 1887.2357177734375 1884.2359619140625 1881.2362060546875 1881.2364501953125 1881.2366943359375 1882.2369384765625 1885.2371826171875 1887.2374267578125 1887.2376708984375 1887.23779296875 1889.238037109375 1891.23828125 1893.238525390625 1894.23876953125 1895.239013671875 1894.2392578125 1895.239501953125 1895.23974609375 1894.239990234375 1893.240234375 1890.240478515625 1890.24072265625 1889.240966796875 1889.2412109375 1889.241455078125 1891.24169921875 1894.2418212890625 1894.2420654296875 1892.2423095703125 1888.2425537109375 1880.2427978515625 1880.2430419921875 1881.2432861328125 1881.2435302734375 1882.2437744140625 1883.2440185546875 1889.2442626953125 1893.2445068359375 1895.2447509765625 1891.2449951171875 1889.2452392578125 1887.2454833984375 1886.24560546875 1886.245849609375 1887.24609375 1887.246337890625 1884.24658203125 1880.246826171875
1931.2073974609375 1931.2076416015625 1933.2078857421875 1931.2081298828125 1930.2083740234375 1929.2086181640625 1928.2088623046875 1927.2091064453125 1927.2093505859375 1925.2095947265625 1924.2098388671875 1924.2100830078125 1924.210205078125 1924.21044921875 1926.210693359375 1927.2109375 1927.211181640625 1928.21142578125 1928.211669921875 1927.2119140625 1927.212158203125 1922.21240234375 1919.212646484375 1920.212890625 1921.213134765625 1921.21337890625 1921.213623046875 1921.2138671875 1923.214111328125 1927.21435546875 1930.2144775390625 1932.2147216796875 1932.2149658203125 1933.2152099609375 1933.2154541015625 1934.2156982421875 1932.2159423828125 1930.2161865234375 1927.2164306640625 1923.2166748046875 1922.2169189453125 1921.2171630859375 1920.2174072265625 1918.2176513671875 1914.2178955078125 1911.2181396484375 1912.2183837890625 1911.218505859375 1912.21875 1910.218994140625 1907.21923828125 1905.219482421875 1905.2197265625 1907.219970703125 1908.22021484375 1907.220458984375 1906.220703125 1908.220947265625 1908.22119140625 1906.221435546875 1905.2216796875 1902.221923828125 1901.22216796875 1900.222412109375 1902.22265625 1907.2227783203125 1910.2230224609375 1912.2232666015625 1914.2235107421875 1918.2237548828125 1918.2239990234375 1917.2242431640625 1917.2244873046875 1917.2247314453125 1914.2249755859375 1909.2252197265625 1907.2254638671875 1906.2257080078125 1904.2259521484375 1902.2261962890625 1901.2264404296875 1901.2266845703125 1900.226806640625 1900.22705078125 1898.227294921875 1895.2275390625 1891.227783203125 1890.22802734375 1890.228271484375 1888.228515625 1887.228759765625 1888.22900390625 1888.229248046875 1889.2294921875 1890.229736328125 1891.22998046875 1894.230224609375 1896.23046875 1896.230712890625 1893.23095703125 1891.2310791015625 1890.2313232421875 1890.2315673828125 1890.2318115234375 1885.2320556640625 1881.2322998046875 1883.2325439453125 1885.2327880859375 1885.2330322265625 1881.2332763671875 1880.2335205078125 1883.2337646484375 1889.2340087890625 1893.2342529296875 1894.2344970703125 1890.2347412109375 1890.2349853515625 1890.235107421875 1889.2353515625 1885.235595703125 1883.23583984375 1882.236083984375 1882.236328125 1882.236572265625 1886.23681640625 1887.237060546875 1889.2373046875 1889.237548828125 1891.23779296875 1893.238037109375 1895.23828125 1896.238525390625 1896.23876953125 1896.239013671875 1895.2392578125 1895.2393798828125 1895.2396240234375 1894.2398681640625 1892.2401123046875 1891.2403564453125 1891.2406005859375 1889.2408447265625 1888.2410888671875 1890.2413330078125 1893.2415771484375 1894.2418212890625 1892.2420654296875 1887.2423095703125 1882.2425537109375 1881.2427978515625 1882.2430419921875 1882.2432861328125 1881.2435302734375 1884.24365234375 1889.243896484375 1892.244140625 1891.244384765625 1888.24462890625 1885.244873046875 1887.2451171875 1889.245361328125 1888.24560546875 1888.245849609375 1887.24609375 1884.246337890625 1880.24658203125
1933.20703125 1933.207275390625 1931.20751953125 1928.207763671875 1925.2080078125 1925.208251953125 1924.20849609375 1925.208740234375 1926.208984375 1926.209228515625 1928.20947265625 1928.209716796875 1927.2099609375 1926.210205078125 1927.2103271484375 1929.2105712890625 1929.2108154296875 1931.2110595703125 1928.2113037109375 1927.2115478515625 1924.2117919921875 1922.2120361328125 1920.2122802734375 1921.2125244140625 1922.2127685546875 1921.2130126953125 1921.2132568359375 1922.2135009765625 1921.2137451171875 1926.2139892578125 1929.2142333984375 1932.2144775390625 1934.2147216796875 1935.21484375 1935.215087890625 1936.21533203125 1936.215576171875 1933.2158203125 1923.216064453125 1919.21630859375 1919.216552734375 1921.216796875 1921.217041015625 1919.21728515625 1916.217529296875 1914.2177734375 1913.218017578125 1911.21826171875 1911.218505859375 1912.21875 1909.218994140625 1904.21923828125 1904.2193603515625 1907.2196044921875 1910.2198486328125 1908.2200927734375 1905.2203369140625 1904.2205810546875 1905.2208251953125 1905.2210693359375 1905.2213134765625 1904.2215576171875 1903.2218017578125 1901.2220458984375 1902.2222900390625 1906.2225341796875 1909.2227783203125 1909.2230224609375 1909.2232666015625 1909.2235107421875 1911.2236328125 1912.223876953125 1915.22412109375 1914.224365234375 1911.224609375 1906.224853515625 1906.22509765625 1905.225341796875 1905.2255859375 1903.225830078125 1901.22607421875 1900.226318359375 1900.2265625 1899.226806640625 1897.22705078125 1895.227294921875 1893.2275390625 1893.227783203125 1893.22802734375 1890.2281494140625 1889.2283935546875 1888.2286376953125 1888.2288818359375 1888.2291259765625 1889.2293701171875 1892.2296142578125 1893.2298583984375 1894.2301025390625 1893.2303466796875 1890.2305908203125 1887.2308349609375 1885.2310791015625 1885.2313232421875 1886.2315673828125 1884.2318115234375 1882.2320556640625 1882.2322998046875 1884.232421875 1883.232666015625 1883.23291015625 1883.233154296875 1885.2333984375 1888.233642578125 1891.23388671875 1893.234130859375 1890.234375 1889.234619140625 1889.23486328125 1887.235107421875 1884.2353515625 1884.235595703125 1885.23583984375 1884.236083984375 1885.236328125 1889.236572265625 1893.23681640625 1893.2369384765625 1895.2371826171875 1894.2374267578125 1895.2376708984375 1896.2379150390625 1898.2381591796875 1898.2384033203125 1897.2386474609375 1896.2388916015625 1896.2391357421875 1897.2393798828125 1897.2396240234375 1895.2398681640625 1893.2401123046875 1891.2403564453125 1890.2406005859375 1889.2408447265625 1888.2410888671875 1890.2412109375 1892.241455078125 1892.24169921875 1889.241943359375 1888.2421875 1887.242431640625 1887.24267578125 1886.242919921875 1886.2431640625 1888.243408203125 1890.24365234375 1890.243896484375 1890.244140625 1887.244384765625 1888.24462890625 1888.244873046875 1889.2451171875 1890.245361328125 1887.24560546875 1886.2457275390625 1884.2459716796875 1881.2462158203125
1933.2066650390625 1932.2069091796875 1932.2071533203125 1925.2073974609375 1923.2076416015625 1920.2078857421875 1921.2081298828125 1923.2083740234375 1927.2086181640625 1928.2088623046875 1929.2091064453125 1930.2093505859375 1929.2095947265625 1927.2098388671875 1925.2100830078125 1925.2103271484375 1926.21044921875 1928.210693359375 1929.2109375 1926.211181640625 1926.21142578125 1925.211669921875 1926.2119140625 1925.212158203125 1922.21240234375 1921.212646484375 1922.212890625 1923.213134765625 1925.21337890625 1924.213623046875 1927.2138671875 1930.214111328125 1934.21435546875 1937.214599609375 1938.21484375 1938.215087890625 1938.2152099609375 1936.2154541015625 1926.2156982421875 1917.2159423828125 1917.2161865234375 1919.2164306640625 1918.2166748046875 1918.2169189453125 1917.2171630859375 1918.2174072265625 1915.2176513671875 1912.2178955078125 1911.2181396484375 1912.2183837890625 1912.2186279296875 1909.2188720703125 1907.2191162109375 1909.2193603515625 1911.2196044921875 1909.2198486328125 1905.219970703125 1903.22021484375 1902.220458984375 1902.220703125 1901.220947265625 1903.22119140625 1904.221435546875 1904.2216796875 1904.221923828125 1907.22216796875 1910.222412109375 1910.22265625 1908.222900390625 1906.22314453125 1908.223388671875 1911.2236328125 1913.223876953125 1913.22412109375 1910.224365234375 1908.224609375 1908.2247314453125 1908.2249755859375 1905.2252197265625 1903.2254638671875 1902.2257080078125 1902.2259521484375 1900.2261962890625 1899.2264404296875 1897.2266845703125 1895.2269287109375 1896.2271728515625 1896.2274169921875 1894.2276611328125 1893.2279052734375 1890.2281494140625 1890.2283935546875 1889.2286376953125 1889.2288818359375 1890.2291259765625 1892.229248046875 1894.2294921875 1892.229736328125 1890.22998046875 1889.230224609375 1886.23046875 1883.230712890625 1883.23095703125 1883.231201171875 1884.2314453125 1883.231689453125 1882.23193359375 1883.232177734375 1886.232421875 1888.232666015625 1891.23291015625 1889.233154296875 1889.2333984375 1891.233642578125 1893.23388671875 1891.2340087890625 1890.2342529296875 1889.2344970703125 1885.2347412109375 1882.2349853515625 1884.2352294921875 1886.2354736328125 1886.2357177734375 1885.2359619140625 1890.2362060546875 1893.2364501953125 1894.2366943359375 1895.2369384765625 1896.2371826171875 1894.2374267578125 1895.2376708984375 1896.2379150390625 1897.2381591796875 1898.2384033203125 1898.2386474609375 1899.23876953125 1898.239013671875 1897.2392578125 1897.239501953125 1894.23974609375 1892.239990234375 1890.240234375 1889.240478515625 1889.24072265625 1888.240966796875 1888.2412109375 1890.241455078125 1891.24169921875 1891.241943359375 1892.2421875 1890.242431640625 1890.24267578125 1892.242919921875 1894.2431640625 1893.243408203125 1891.2435302734375 1890.2437744140625 1889.2440185546875 1888.2442626953125 1887.2445068359375 1886.2447509765625 1885.2449951171875 1885.2452392578125 1884.2454833984375 1883.2457275390625 1882.2459716796875
1931.206298828125 1930.20654296875 1932.206787109375 1929.20703125 1924.207275390625 1920.20751953125 1918.207763671875 1923.2080078125 1928.208251953125 1929.20849609375 1927.208740234375 1927.208984375 1927.209228515625 1925.20947265625 1922.209716796875 1922.2099609375 1922.210205078125 1923.21044921875 1925.210693359375 1928.2108154296875 1929.2110595703125 1932.2113037109375 1930.2115478515625 1926.2117919921875 1920.2120361328125 1918.2122802734375 1919.2125244140625 1922.2127685546875 1924.2130126953125 1924.2132568359375 1927.2135009765625 1931.2137451171875 1936.2139892578125 1939.2142333984375 1939.2144775390625 1936.2147216796875 1934.2149658203125 1933.2152099609375 1928.2154541015625 1921.2156982421875 1918.2158203125 1918.216064453125 1917.21630859375 1918.216552734375 1921.216796875 1922.217041015625 1917.21728515625 1912.217529296875 1910.2177734375 1913.218017578125 1915.21826171875 1914.218505859375 1913.21875 1912.218994140625 1912.21923828125 1908.219482421875 1903.2197265625 1901.219970703125 1900.22021484375 1900.220458984375 1900.220703125 1902.2208251953125 1904.2210693359375 1904.2213134765625 1903.2215576171875 1907.2218017578125 1910.2220458984375 1909.2222900390625 1908.2225341796875 1907.2227783203125 1908.2230224609375 1911.2232666015625 1913.2235107421875 1913.2237548828125 1913.2239990234375 1912.2242431640625 1911.2244873046875 1909.2247314453125 1906.2249755859375 1902.2252197265625 1901.2254638671875 1901.2257080078125 1899.225830078125 1897.22607421875 1896.226318359375 1895.2265625 1896.226806640625 1897.22705078125 1895.227294921875 1893.2275390625 1893.227783203125 1892.22802734375 1892.228271484375 1891.228515625 1891.228759765625 1893.22900390625 1894.229248046875 1892.2294921875 1890.229736328125 1889.22998046875 1886.230224609375 1883.23046875 1882.230712890625 1882.2308349609375 1883.2310791015625 1883.2313232421875 1883.2315673828125 1885.2318115234375 1888.2320556640625 1891.2322998046875 1892.2325439453125 1892.2327880859375 1892.2330322265625 1894.2332763671875 1894.2335205078125 1893.2337646484375 1891.2340087890625 1890.2342529296875 1884.2344970703125 1881.2347412109375 1883.2349853515625 1885.2352294921875 1884.2354736328125 1883.2357177734375 1885.23583984375 1889.236083984375 1889.236328125 1892.236572265625 1894.23681640625 1893.237060546875 1893.2373046875 1894.237548828125 1896.23779296875 1897.238037109375 1900.23828125 1898.238525390625 1897.23876953125 1896.239013671875 1896.2392578125 1896.239501953125 1894.23974609375 1891.239990234375 1890.240234375 1890.240478515625 1888.24072265625 1887.2408447265625 1888.2410888671875 1891.2413330078125 1892.2415771484375 1891.2418212890625 1892.2420654296875 1892.2423095703125 1893.2425537109375 1895.2427978515625 1893.2430419921875 1891.2432861328125 1891.2435302734375 1890.2437744140625 1888.2440185546875 1885.2442626953125 1882.2445068359375 1882.2447509765625 1883.2449951171875 1885.2452392578125 1886.2454833984375 1884.2457275390625
1928.2059326171875 1927.2061767578125 1927.2064208984375 1927.2066650390625 1926.2069091796875 1922.2071533203125 1920.2073974609375 1921.2076416015625 1925.2078857421875 1923.2081298828125 1921.2083740234375 1921.2086181640625 1922.2088623046875 1923.2091064453125 1922.2093505859375 1921.2095947265625 1921.2098388671875 1921.2100830078125 1923.2103271484375 1925.2105712890625 1928.2108154296875 1928.2110595703125 1927.211181640625 1923.21142578125 1919.211669921875 1918.2119140625 1918.212158203125 1920.21240234375 1923.212646484375 1925.212890625 1927.213134765625 1933.21337890625 1937.213623046875 1939.2138671875 1938.214111328125 1934.21435546875 1930.214599609375 1930.21484375 1926.215087890625 1923.21533203125 1922.215576171875 1919.2158203125 1919.216064453125 1922.21630859375 1926.216552734375 1926.2166748046875 1923.2169189453125 1916.2171630859375 1915.2174072265625 1916.2176513671875 1919.2178955078125 1919.2181396484375 1917.2183837890625 1915.2186279296875 1909.2188720703125 1905.2191162109375 1902.2193603515625 1901.2196044921875 1901.2198486328125 1903.2200927734375 1904.2203369140625 1906.2205810546875 1908.2208251953125 1905.2210693359375 1904.2213134765625 1907.2215576171875 1908.2218017578125 1906.221923828125 1905.22216796875 1907.222412109375 1909.22265625 1910.222900390625 1911.22314453125 1913.223388671875 1914.2236328125 1914.223876953125 1912.22412109375 1907.224365234375 1905.224609375 1903.224853515625 1901.22509765625 1900.225341796875 1898.2255859375 1896.225830078125 1895.22607421875 1894.226318359375 1896.2265625 1898.226806640625 1897.22705078125 1895.227294921875 1896.2274169921875 1896.2276611328125 1895.2279052734375 1893.2281494140625 1891.2283935546875 1891.2286376953125 1894.2288818359375 1894.2291259765625 1891.2293701171875 1886.2296142578125 1884.2298583984375 1883.2301025390625 1882.2303466796875 1882.2305908203125 1883.2308349609375 1883.2310791015625 1885.2313232421875 1888.2315673828125 1890.2318115234375 1891.2320556640625 1892.2322998046875 1892.2325439453125 1893.232666015625 1895.23291015625 1894.233154296875 1892.2333984375 1890.233642578125 1889.23388671875 1885.234130859375 1884.234375 1885.234619140625 1886.23486328125 1883.235107421875 1882.2353515625 1883.235595703125 1885.23583984375 1887.236083984375 1889.236328125 1893.236572265625 1893.23681640625 1894.237060546875 1894.2373046875 1895.237548828125 1896.23779296875 1897.238037109375 1896.2381591796875 1894.2384033203125 1893.2386474609375 1894.2388916015625 1895.2391357421875 1893.2393798828125 1891.2396240234375 1889.2398681640625 1889.2401123046875 1888.2403564453125 1887.2406005859375 1889.2408447265625 1891.2410888671875 1890.2413330078125 1890.2415771484375 1891.2418212890625 1892.2420654296875 1894.2423095703125 1896.2425537109375 1895.2427978515625 1894.2430419921875 1892.2432861328125 1890.243408203125 1889.24365234375 1886.243896484375 1884.244140625 1883.244384765625 1884.24462890625 1888.244873046875 1891.2451171875 1890.245361328125
1929.2056884765625 1928.205810546875 1927.2060546875 1926.206298828125 1926.20654296875 1923.206787109375 1920.20703125 1921.207275390625 1921.20751953125 1921.207763671875 1919.2080078125 1918.208251953125 1918.20849609375 1920.208740234375 1921.208984375 1922.209228515625 1921.20947265625 1921.209716796875 1921.2099609375 1920.210205078125 1917.21044921875 1922.210693359375 1922.2109375 1922.211181640625 1922.21142578125 1922.211669921875 1923.2117919921875 1921.2120361328125 1924.2122802734375 1926.2125244140625 1928.2127685546875 1931.2130126953125 1935.2132568359375 1938.2135009765625 1937.2137451171875 1933.2139892578125 1931.2142333984375 1929.2144775390625 1927.2147216796875 1924.2149658203125 1928.2152099609375 1924.2154541015625 1926.2156982421875 1930.2159423828125 1933.2161865234375 1935.2164306640625 1932.2166748046875 1930.2169189453125 1924.2171630859375 1924.21728515625 1923.217529296875 1921.2177734375 1920.218017578125 1917.21826171875 1915.218505859375 1910.21875 1907.218994140625 1904.21923828125 1909.219482421875 1911.2197265625 1910.219970703125 1912.22021484375 1911.220458984375 1909.220703125 1907.220947265625 1908.22119140625 1906.221435546875 1903.2216796875 1902.221923828125 1905.22216796875 1907.222412109375 1908.22265625 1911.222900390625 1914.22314453125 1915.2232666015625 1914.2235107421875 1909.2237548828125 1905.2239990234375 1904.2242431640625 1904.2244873046875 1901.2247314453125 1898.2249755859375 1897.2252197265625 1897.2254638671875 1896.2257080078125 1894.2259521484375 1894.2261962890625 1896.2264404296875 1896.2266845703125 1896.2269287109375 1897.2271728515625 1898.2274169921875 1897.2276611328125 1895.2279052734375 1892.2281494140625 1891.2283935546875 1894.2286376953125 1895.2288818359375 1891.22900390625 1885.229248046875 1883.2294921875 1884.229736328125 1883.22998046875 1883.230224609375 1885.23046875 1887.230712890625 1889.23095703125 1891.231201171875 1892.2314453125 1892.231689453125 1892.23193359375 1891.232177734375 1893.232421875 1894.232666015625 1893.23291015625 1890.233154296875 1890.2333984375 1890.233642578125 1887.23388671875 1886.234130859375 1888.234375 1889.234619140625 1887.2347412109375 1885.2349853515625 1884.2352294921875 1884.2354736328125 1886.2357177734375 1890.2359619140625 1892.2362060546875 1894.2364501953125 1895.2366943359375 1896.2369384765625 1894.2371826171875 1894.2374267578125 1894.2376708984375 1893.2379150390625 1893.2381591796875 1893.2384033203125 1893.2386474609375 1892.2388916015625 1892.2391357421875 1887.2393798828125 1885.2396240234375 1884.2398681640625 1886.2401123046875 1887.2403564453125 1888.240478515625 1890.24072265625 1889.240966796875 1889.2412109375 1891.241455078125 1893.24169921875 1894.241943359375 1895.2421875 1896.242431640625 1895.24267578125 1892.242919921875 1890.2431640625 1889.243408203125 1888.24365234375 1886.243896484375 1884.244140625 1884.244384765625 1888.24462890625 1892.244873046875 1892.2451171875
1932.205322265625 1932.20556640625 1930.205810546875 1930.2060546875 1930.2061767578125 1927.2064208984375 1924.2066650390625 1924.2069091796875 1928.2071533203125 1926.2073974609375 1922.2076416015625 1919.2078857421875 1918.2081298828125 1920.2083740234375 1921.2086181640625 1921.2088623046875 1917.2091064453125 1921.2093505859375 1924.2095947265625 1923.2098388671875 1922.2100830078125 1924.2103271484375 1923.2105712890625 1923.2108154296875 1927.2110595703125 1927.2113037109375 1924.2115478515625 1922.2117919921875 1923.2120361328125 1925.212158203125 1927.21240234375 1929.212646484375 1932.212890625 1935.213134765625 1935.21337890625 1933.213623046875 1931.2138671875 1935.214111328125 1932.21435546875 1937.214599609375 1937.21484375 1935.215087890625 1937.21533203125 1941.215576171875 1943.2158203125 1942.216064453125 1940.21630859375 1937.216552734375 1936.216796875 1932.217041015625 1929.21728515625 1928.217529296875 1925.2177734375 1923.218017578125 1923.21826171875 1920.218505859375 1913.2186279296875 1912.2188720703125 1918.2191162109375 1921.2193603515625 1918.2196044921875 1914.2198486328125 1915.2200927734375 1915.2203369140625 1911.2205810546875 1909.2208251953125 1905.2210693359375 1902.2213134765625 1902.2215576171875 1904.2218017578125 1906.2220458984375 1908.2222900390625 1912.2225341796875 1915.2227783203125 1916.2230224609375 1913.2232666015625 1909.2235107421875 1905.2237548828125 1905.2239990234375 1904.2242431640625 1901.2244873046875 1897.224609375 1895.224853515625 1897.22509765625 1896.225341796875 1894.2255859375 1893.225830078125 1893.22607421875 1893.226318359375 1893.2265625 1895.226806640625 1897.22705078125 1897.227294921875 1895.2275390625 1892.227783203125 1890.22802734375 1892.228271484375 1893.228515625 1891.228759765625 1887.22900390625 1890.229248046875 1887.2294921875 1885.229736328125 1885.22998046875 1888.230224609375 1891.23046875 1893.230712890625 1894.23095703125 1893.2310791015625 1893.2313232421875 1891.2315673828125 1891.2318115234375 1892.2320556640625 1893.2322998046875 1891.2325439453125 1889.2327880859375 1891.2330322265625 1892.2332763671875 1890.2335205078125 1889.2337646484375 1890.2340087890625 1891.2342529296875 1890.2344970703125 1887.2347412109375 1885.2349853515625 1885.2352294921875 1888.2354736328125 1891.2357177734375 1893.2359619140625 1894.2362060546875 1894.2364501953125 1893.2366943359375 1891.2369384765625 1889.2371826171875 1890.2373046875 1891.237548828125 1892.23779296875 1892.238037109375 1892.23828125 1891.238525390625 1890.23876953125 1884.239013671875 1882.2392578125 1882.239501953125 1886.23974609375 1888.239990234375 1889.240234375 1888.240478515625 1889.24072265625 1890.240966796875 1891.2412109375 1893.241455078125 1893.24169921875 1894.241943359375 1895.2421875 1893.242431640625 1891.24267578125 1889.242919921875 1890.2431640625 1889.243408203125 1886.2435302734375 1885.2437744140625 1884.2440185546875 1885.2442626953125 1889.2445068359375 1888.2447509765625
1935.2049560546875 1934.2052001953125 1935.2054443359375 1934.2056884765625 1933.2059326171875 1931.2060546875 1929.206298828125 1930.20654296875 1932.206787109375 1930.20703125 1928.207275390625 1925.20751953125 1924.207763671875 1925.2080078125 1925.208251953125 1919.20849609375 1915.208740234375 1920.208984375 1931.209228515625 1935.20947265625 1935.209716796875 1934.2099609375 1928.210205078125 1925.21044921875 1929.210693359375 1930.2109375 1926.211181640625 1923.21142578125 1922.211669921875 1924.2119140625 1925.212158203125 1928.21240234375 1930.212646484375 1931.212890625 1932.2130126953125 1932.2132568359375 1937.2135009765625 1942.2137451171875 1947.2139892578125 1950.2142333984375 1950.2144775390625 1949.2147216796875 1950.2149658203125 1952.2152099609375 1952.2154541015625 1952.2156982421875 1947.2159423828125 1943.2161865234375 1941.2164306640625 1940.2166748046875 1939.2169189453125 1937.2171630859375 1932.2174072265625 1930.2176513671875 1927.2178955078125 1922.2181396484375 1915.2183837890625 1915.2186279296875 1920.2188720703125 1922.2191162109375 1920.2193603515625 1916.2196044921875 1919.2197265625 1919.219970703125 1918.22021484375 1914.220458984375 1909.220703125 1904.220947265625 1904.22119140625 1904.221435546875 1905.2216796875 1908.221923828125 1912.22216796875 1915.222412109375 1916.22265625 1913.222900390625 1909.22314453125 1908.223388671875 1906.2236328125 1905.223876953125 1902.22412109375 1898.224365234375 1896.224609375 1895.224853515625 1895.22509765625 1894.225341796875 1893.2255859375 1893.225830078125 1892.22607421875 1892.226318359375 1893.2265625 1895.2266845703125 1896.2269287109375 1895.2271728515625 1891.2274169921875 1888.2276611328125 1888.2279052734375 1889.2281494140625 1888.2283935546875 1887.2286376953125 1889.2288818359375 1891.2291259765625 1887.2293701171875 1887.2296142578125 1892.2298583984375 1896.2301025390625 1898.2303466796875 1896.2305908203125 1896.2308349609375 1895.2310791015625 1894.2313232421875 1892.2315673828125 1892.2318115234375 1892.2320556640625 1890.2322998046875 1890.2325439453125 1892.2327880859375 1893.2330322265625 1892.2332763671875 1892.2333984375 1892.233642578125 1892.23388671875 1891.234130859375 1887.234375 1885.234619140625 1886.23486328125 1889.235107421875 1889.2353515625 1891.235595703125 1891.23583984375 1892.236083984375 1891.236328125 1889.236572265625 1888.23681640625 1887.237060546875 1888.2373046875 1890.237548828125 1891.23779296875 1893.238037109375 1893.23828125 1890.238525390625 1887.23876953125 1885.239013671875 1887.2392578125 1891.239501953125 1894.23974609375 1893.239990234375 1892.240234375 1890.2403564453125 1892.2406005859375 1893.2408447265625 1893.2410888671875 1893.2413330078125 1893.2415771484375 1894.2418212890625 1894.2420654296875 1893.2423095703125 1892.2425537109375 1892.2427978515625 1890.2430419921875 1887.2432861328125 1885.2435302734375 1885.2437744140625 1885.2440185546875 1885.2442626953125 1885.2445068359375
1936.20458984375 1934.204833984375 1935.205078125 1936.205322265625 1935.20556640625 1935.205810546875 1933.2060546875 1931.206298828125 1931.20654296875 1931.2066650390625 1932.2069091796875 1931.2071533203125 1930.2073974609375 1929.2076416015625 1928.2078857421875 1921.2081298828125 1917.2083740234375 1922.2086181640625 1931.2088623046875 1939.2091064453125 1941.2093505859375 1942.2095947265625 1931.2098388671875 1925.2100830078125 1930.2103271484375 1931.2105712890625 1929.2108154296875 1925.2110595703125 1924.2113037109375 1924.2115478515625 1925.2117919921875 1927.2120361328125 1930.2122802734375 1932.2125244140625 1932.2127685546875 1935.2130126953125 1942.2132568359375 1951.2135009765625 1955.2137451171875 1957.2138671875 1962.214111328125 1963.21435546875 1964.214599609375 1965.21484375 1967.215087890625 1962.21533203125 1955.215576171875 1950.2158203125 1950.216064453125 1947.21630859375 1944.216552734375 1943.216796875 1941.217041015625 1935.21728515625 1930.217529296875 1923.2177734375 1921.218017578125 1923.21826171875 1921.218505859375 1921.21875 1918.218994140625 1916.21923828125 1916.219482421875 1919.2197265625 1920.219970703125 1918.22021484375 1914.220458984375 1907.220703125 1905.220947265625 1906.22119140625 1908.221435546875 1910.2215576171875 1914.2218017578125 1917.2220458984375 1917.2222900390625 1912.2225341796875 1909.2227783203125 1906.2230224609375 1903.2232666015625 1901.2235107421875 1900.2237548828125 1899.2239990234375 1897.2242431640625 1895.2244873046875 1893.2247314453125 1894.2249755859375 1896.2252197265625 1895.2254638671875 1893.2257080078125 1891.2259521484375 1891.2261962890625 1892.2264404296875 1894.2266845703125 1894.2269287109375 1893.2271728515625 1889.2274169921875 1888.2276611328125 1888.2279052734375 1888.2281494140625 1887.2283935546875 1888.2286376953125 1889.2288818359375 1890.22900390625 1891.229248046875 1895.2294921875 1900.229736328125 1899.22998046875 1900.230224609375 1899.23046875 1899.230712890625 1898.23095703125 1895.231201171875 1892.2314453125 1891.231689453125 1891.23193359375 1891.232177734375 1893.232421875 1894.232666015625 1894.23291015625 1892.233154296875 1893.2333984375 1893.233642578125 1891.23388671875 1888.234130859375 1885.234375 1885.234619140625 1888.23486328125 1888.235107421875 1889.2353515625 1891.235595703125 1889.23583984375 1890.236083984375 1890.236328125 1891.2364501953125 1889.2366943359375 1889.2369384765625 1889.2371826171875 1892.2374267578125 1894.2376708984375 1894.2379150390625 1891.2381591796875 1888.2384033203125 1887.2386474609375 1889.2388916015625 1895.2391357421875 1898.2393798828125 1899.2396240234375 1895.2398681640625 1894.2401123046875 1893.2403564453125 1895.2406005859375 1895.2408447265625 1893.2410888671875 1893.2413330078125 1893.2415771484375 1895.2418212890625 1895.2420654296875 1894.2423095703125 1892.2425537109375 1890.2427978515625 1889.2430419921875 1889.2432861328125 1888.2435302734375 1885.2437744140625 1883.243896484375 1882.244140625
1936.2042236328125 1934.2044677734375 1934.2047119140625 1936.2049560546875 1938.2052001953125 1938.2054443359375 1936.2056884765625 1933.2059326171875 1932.2061767578125 1932.2064208984375 1934.2066650390625 1934.2069091796875 1932.20703125 1929.207275390625 1924.20751953125 1923.207763671875 1921.2080078125 1923.208251953125 1930.20849609375 1936.208740234375 1941.208984375 1937.209228515625 1930.20947265625 1923.209716796875 1929.2099609375 1930.210205078125 1929.21044921875 1928.210693359375 1927.2109375 1927.211181640625 1927.21142578125 1929.211669921875 1932.2119140625 1936.212158203125 1941.21240234375 1947.212646484375 1955.212890625 1962.213134765625 1967.21337890625 1974.213623046875 1976.2138671875 1978.214111328125 1978.21435546875 1977.214599609375 1979.21484375 1971.215087890625 1966.21533203125 1961.2154541015625 1960.2156982421875 1957.2159423828125 1953.2161865234375 1951.2164306640625 1946.2166748046875 1940.2169189453125 1936.2171630859375 1931.2174072265625 1928.2176513671875 1929.2178955078125 1926.2181396484375 1922.2183837890625 1920.2186279296875 1916.2188720703125 1917.2191162109375 1918.2193603515625 1917.2196044921875 1918.2198486328125 1914.2200927734375 1909.2203369140625 1907.2205810546875 1909.2208251953125 1911.2210693359375 1914.2213134765625 1916.2215576171875 1916.2218017578125 1915.2220458984375 1910.2222900390625 1907.2225341796875 1903.2227783203125 1899.2230224609375 1898.2232666015625 1897.2235107421875 1897.2236328125 1897.223876953125 1895.22412109375 1893.224365234375 1893.224609375 1896.224853515625 1897.22509765625 1894.225341796875 1890.2255859375 1889.225830078125 1890.22607421875 1892.226318359375 1895.2265625 1895.226806640625 1892.22705078125 1889.227294921875 1889.2275390625 1890.227783203125 1889.22802734375 1889.228271484375 1889.228515625 1890.228759765625 1893.22900390625 1895.229248046875 1896.2294921875 1897.229736328125 1897.22998046875 1900.230224609375 1900.23046875 1897.230712890625 1894.23095703125 1892.231201171875 1893.2314453125 1892.231689453125 1892.23193359375 1893.2320556640625 1894.2322998046875 1893.2325439453125 1891.2327880859375 1892.2330322265625 1892.2332763671875 1892.2335205078125 1890.2337646484375 1887.2340087890625 1886.2342529296875 1884.2344970703125 1887.2347412109375 1892.2349853515625 1893.2352294921875 1891.2354736328125 1890.2357177734375 1892.2359619140625 1893.2362060546875 1893.2364501953125 1891.2366943359375 1891.2369384765625 1892.2371826171875 1892.2374267578125 1890.2376708984375 1886.2379150390625 1884.2381591796875 1883.2384033203125 1889.2386474609375 1894.2388916015625 1896.2391357421875 1896.2393798828125 1897.2396240234375 1894.2398681640625 1894.2401123046875 1894.240234375 1895.240478515625 1894.24072265625 1893.240966796875 1893.2412109375 1895.241455078125 1895.24169921875 1894.241943359375 1891.2421875 1889.242431640625 1889.24267578125 1891.242919921875 1890.2431640625 1886.243408203125 1883.24365234375 1881.243896484375
1939.203857421875 1937.2041015625 1938.204345703125 1939.20458984375 1939.204833984375 1938.205078125 1935.205322265625 1934.20556640625 1933.205810546875 1934.2060546875 1936.206298828125 1935.20654296875 1933.206787109375 1929.20703125 1925.207275390625 1927.20751953125 1928.2076416015625 1928.2078857421875 1929.2081298828125 1933.2083740234375 1936.2086181640625 1931.2088623046875 1921.2091064453125 1921.2093505859375 1926.2095947265625 1930.2098388671875 1930.2100830078125 1930.2103271484375 1931.2105712890625 1929.2108154296875 1929.2110595703125 1931.2113037109375 1935.2115478515625 1943.2117919921875 1952.2120361328125 1959.2122802734375 1971.2125244140625 1976.2127685546875 1984.2130126953125 1989.2132568359375 1991.2135009765625 1991.2137451171875 1989.2139892578125 1990.2142333984375 1990.2144775390625 1986.2147216796875 1977.2149658203125 1973.2152099609375 1971.2154541015625 1969.2156982421875 1962.2159423828125 1960.2161865234375 1952.2164306640625 1945.2166748046875 1940.2169189453125 1936.217041015625 1932.21728515625 1930.217529296875 1929.2177734375 1926.218017578125 1924.21826171875 1922.218505859375 1921.21875 1921.218994140625 1921.21923828125 1920.219482421875 1919.2197265625 1912.219970703125 1910.22021484375 1910.220458984375 1912.220703125 1915.220947265625 1915.22119140625 1915.221435546875 1912.2216796875 1905.221923828125 1903.22216796875 1900.222412109375 1899.22265625 1899.222900390625 1898.22314453125 1897.223388671875 1897.2236328125 1896.223876953125 1894.22412109375 1893.224365234375 1896.224609375 1897.224853515625 1894.22509765625 1892.225341796875 1891.2255859375 1891.225830078125 1892.22607421875 1892.226318359375 1893.2264404296875 1892.2266845703125 1890.2269287109375 1891.2271728515625 1890.2274169921875 1891.2276611328125 1890.2279052734375 1889.2281494140625 1889.2283935546875 1890.2286376953125 1892.2288818359375 1893.2291259765625 1893.2293701171875 1896.2296142578125 1897.2298583984375 1896.2301025390625 1894.2303466796875 1892.2305908203125 1893.2308349609375 1894.2310791015625 1894.2313232421875 1894.2315673828125 1894.2318115234375 1894.2320556640625 1892.2322998046875 1891.2325439453125 1891.2327880859375 1891.2330322265625 1892.2332763671875 1892.2335205078125 1892.2337646484375 1889.2340087890625 1889.2342529296875 1891.2344970703125 1895.2347412109375 1894.2349853515625 1892.2352294921875 1891.2354736328125 1892.235595703125 1893.23583984375 1893.236083984375 1893.236328125 1890.236572265625 1889.23681640625 1887.237060546875 1885.2373046875 1886.237548828125 1883.23779296875 1885.238037109375 1890.23828125 1894.238525390625 1891.23876953125 1891.239013671875 1893.2392578125 1894.239501953125 1894.23974609375 1893.239990234375 1893.240234375 1893.240478515625 1893.24072265625 1894.240966796875 1895.2412109375 1895.241455078125 1894.24169921875 1892.241943359375 1889.2421875 1889.242431640625 1890.24267578125 1888.242919921875 1885.2431640625 1884.243408203125 1882.24365234375
1943.2034912109375 1942.2037353515625 1940.2039794921875 1941.2042236328125 1938.2044677734375 1936.2047119140625 1934.2049560546875 1933.2052001953125 1934.2054443359375 1935.2056884765625 1935.2059326171875 1935.2061767578125 1934.2064208984375 1931.2066650390625 1929.2069091796875 1931.2071533203125 1934.2073974609375 1932.2076416015625 1930.2078857421875 1931.2081298828125 1933.2083740234375 1930.20849609375 1923.208740234375 1922.208984375 1926.209228515625 1931.20947265625 1932.209716796875 1931.2099609375 1931.210205078125 1932.21044921875 1933.210693359375 1936.2109375 1941.211181640625 1949.21142578125 1958.211669921875 1969.2119140625 1978.212158203125 1987.21240234375 1993.212646484375 1997.212890625 2001.213134765625 1999.21337890625 1996.213623046875 1997.2138671875 2000.214111328125 1993.21435546875 1984.214599609375 1978.21484375 1975.215087890625 1973.21533203125 1970.215576171875 1967.2158203125 1963.216064453125 1952.21630859375 1945.216552734375 1941.216796875 1936.217041015625 1933.21728515625 1932.217529296875 1930.2177734375 1928.218017578125 1927.21826171875 1926.218505859375 1925.21875 1926.218994140625 1928.21923828125 1926.2193603515625 1920.2196044921875 1915.2198486328125 1914.2200927734375 1915.2203369140625 1917.2205810546875 1916.2208251953125 1914.2210693359375 1911.2213134765625 1907.2215576171875 1902.2218017578125 1901.2220458984375 1902.2222900390625 1903.2225341796875 1902.2227783203125 1900.2230224609375 1898.2232666015625 1897.2235107421875 1896.2237548828125 1895.2239990234375 1896.2242431640625 1897.2244873046875 1896.2247314453125 1895.2249755859375 1893.2252197265625 1893.2254638671875 1891.2257080078125 1890.2259521484375 1889.2261962890625 1891.2264404296875 1895.2266845703125 1895.2269287109375 1893.2271728515625 1890.2274169921875 1889.2276611328125 1887.2279052734375 1887.2281494140625 1888.2283935546875 1889.2286376953125 1892.2288818359375 1894.2291259765625 1895.2293701171875 1896.2296142578125 1895.229736328125 1893.22998046875 1893.230224609375 1895.23046875 1896.230712890625 1896.23095703125 1896.231201171875 1896.2314453125 1894.231689453125 1893.23193359375 1893.232177734375 1892.232421875 1891.232666015625 1891.23291015625 1891.233154296875 1893.2333984375 1895.233642578125 1897.23388671875 1896.234130859375 1894.234375 1893.234619140625 1892.23486328125 1892.235107421875 1891.2353515625 1890.235595703125 1890.23583984375 1889.236083984375 1889.236328125 1887.236572265625 1886.23681640625 1888.237060546875 1890.2373046875 1891.237548828125 1891.23779296875 1898.238037109375 1896.23828125 1892.238525390625 1891.23876953125 1893.239013671875 1895.2392578125 1895.239501953125 1894.23974609375 1892.239990234375 1892.240234375 1893.240478515625 1895.2406005859375 1895.2408447265625 1893.2410888671875 1893.2413330078125 1891.2415771484375 1889.2418212890625 1887.2420654296875 1887.2423095703125 1888.2425537109375 1886.2427978515625 1884.2430419921875 1884.2432861328125
1943.203125 1942.203369140625 1941.20361328125 1939.203857421875 1937.2041015625 1935.204345703125 1933.20458984375 1933.204833984375 1934.205078125 1934.205322265625 1936.20556640625 1937.205810546875 1937.2060546875 1936.206298828125 1935.20654296875 1936.206787109375 1935.20703125 1932.207275390625 1931.20751953125 1930.207763671875 1931.2080078125 1929.208251953125 1926.20849609375 1924.208740234375 1927.208984375 1933.209228515625 1934.20947265625 1933.209716796875 1933.2099609375 1934.2100830078125 1935.2103271484375 1938.2105712890625 1943.2108154296875 1951.2110595703125 1963.2113037109375 1976.2115478515625 1985.2117919921875 1993.2120361328125 2000.2122802734375 2006.2125244140625 2008.2127685546875 2006.2130126953125 1998.2132568359375 1997.2135009765625 1998.2137451171875 1994.2139892578125 1988.2142333984375 1982.2144775390625 1976.2147216796875 1976.2149658203125 1976.2152099609375 1972.2154541015625 1968.2156982421875 1961.2159423828125 1950.2161865234375 1944.2164306640625 1942.2166748046875 1939.2169189453125 1938.2171630859375 1937.2174072265625 1934.2176513671875 1932.2178955078125 1930.2181396484375 1928.2183837890625 1931.2186279296875 1932.2188720703125 1930.2191162109375 1926.2193603515625 1922.2196044921875 1918.2198486328125 1919.2200927734375 1920.2203369140625 1918.2205810546875 1915.2208251953125 1912.2210693359375 1909.2213134765625 1905.2215576171875 1903.2218017578125 1905.2220458984375 1906.22216796875 1905.222412109375 1902.22265625 1899.222900390625 1898.22314453125 1897.223388671875 1895.2236328125 1896.223876953125 1897.22412109375 1897.224365234375 1896.224609375 1895.224853515625 1893.22509765625 1892.225341796875 1891.2255859375 1891.225830078125 1893.22607421875 1897.226318359375 1897.2265625 1893.226806640625 1890.22705078125 1887.227294921875 1885.2275390625 1886.227783203125 1888.22802734375 1890.228271484375 1894.228515625 1896.228759765625 1896.22900390625 1895.229248046875 1895.2294921875 1895.229736328125 1895.22998046875 1897.230224609375 1898.23046875 1897.230712890625 1896.23095703125 1895.231201171875 1893.2314453125 1892.231689453125 1894.23193359375 1894.232177734375 1892.232421875 1890.232666015625 1889.23291015625 1890.233154296875 1898.2333984375 1902.233642578125 1899.23388671875 1896.234130859375 1894.234375 1894.234619140625 1893.2347412109375 1891.2349853515625 1889.2352294921875 1886.2354736328125 1892.2357177734375 1893.2359619140625 1895.2362060546875 1893.2364501953125 1893.2366943359375 1895.2369384765625 1896.2371826171875 1897.2374267578125 1900.2376708984375 1900.2379150390625 1898.2381591796875 1896.2384033203125 1896.2386474609375 1895.2388916015625 1895.2391357421875 1895.2393798828125 1894.2396240234375 1894.2398681640625 1894.2401123046875 1895.2403564453125 1894.2406005859375 1892.2408447265625 1892.2410888671875 1891.2413330078125 1889.2415771484375 1886.2418212890625 1885.2420654296875 1887.2423095703125 1888.2425537109375 1886.2427978515625 1886.2430419921875
1942.2027587890625 1942.2030029296875 1939.2032470703125 1937.2034912109375 1936.2037353515625 1935.2039794921875 1934.2042236328125 1934.2044677734375 1935.2047119140625 1937.2049560546875 1941.2052001953125 1941.2054443359375 1941.2056884765625 1939.2059326171875 1938.2061767578125 1936.2064208984375 1935.2066650390625 1934.2069091796875 1931.2071533203125 1930.2073974609375 1929.2076416015625 1927.2078857421875 1925.2081298828125 1925.2083740234375 1927.2086181640625 1931.2088623046875 1934.2091064453125 1934.2093505859375 1935.2095947265625 1936.2098388671875 1936.2100830078125 1938.2103271484375 1944.2105712890625 1953.2108154296875 1964.2110595703125 1977.2113037109375 1989.2115478515625 1996.2117919921875 2005.2119140625 2013.212158203125 2015.21240234375 2013.212646484375 2004.212890625 2000.213134765625 1998.21337890625 1994.213623046875 1990.2138671875 1986.214111328125 1979.21435546875 1977.214599609375 1977.21484375 1974.215087890625 1972.21533203125 1965.215576171875 1956.2158203125 1950.216064453125 1949.21630859375 1950.216552734375 1952.216796875 1951.217041015625 1948.21728515625 1941.217529296875 1938.2177734375 1936.218017578125 1938.21826171875 1936.218505859375 1934.21875 1931.218994140625 1927.21923828125 1922.219482421875 1922.2197265625 1922.219970703125 1918.22021484375 1915.220458984375 1911.220703125 1907.220947265625 1905.22119140625 1905.221435546875 1905.2216796875 1906.221923828125 1904.22216796875 1902.222412109375 1899.22265625 1899.222900390625 1898.22314453125 1898.223388671875 1896.2236328125 1896.223876953125 1896.22412109375 1896.224365234375 1895.224609375 1894.224853515625 1892.22509765625 1891.225341796875 1894.2255859375 1896.225830078125 1896.22607421875 1894.226318359375 1892.2265625 1890.2266845703125 1886.2269287109375 1884.2271728515625 1886.2274169921875 1889.2276611328125 1892.2279052734375 1896.2281494140625 1897.2283935546875 1895.2286376953125 1894.2288818359375 1896.2291259765625 1897.2293701171875 1896.2296142578125 1898.2298583984375 1897.2301025390625 1894.2303466796875 1895.2305908203125 1895.2308349609375 1891.2310791015625 1891.2313232421875 1892.2315673828125 1894.2318115234375 1894.2320556640625 1892.2322998046875 1892.2325439453125 1897.2327880859375 1899.2330322265625 1901.2332763671875 1899.2335205078125 1897.2337646484375 1896.2340087890625 1895.2342529296875 1895.2344970703125 1897.2347412109375 1895.2349853515625 1899.2352294921875 1898.2354736328125 1900.2357177734375 1899.2359619140625 1901.2362060546875 1897.2364501953125 1900.2366943359375 1899.2369384765625 1899.2371826171875 1900.2374267578125 1901.2376708984375 1900.2379150390625 1900.2381591796875 1897.2384033203125 1895.2386474609375 1895.2388916015625 1895.2391357421875 1897.2393798828125 1897.2396240234375 1896.2398681640625 1895.2401123046875 1893.2403564453125 1893.2406005859375 1893.2408447265625 1892.2410888671875 1891.2412109375 1888.241455078125 1886.24169921875 1886.241943359375 1887.2421875 1888.242431640625 1888.24267578125
